581
-9496.000158 -6621.999660 73324.000108
1941.000008 -502.999956 53448.000262
-13993.000076 -9472.000458 73547.999893
-3165.000198 2805.999696 53841.000158
3941.000109 -826.999564 53350.999780
-13992.999698 -6391.999696 73548.000325
-4629.000334 -2729.999756 72919.999638
-14544.000229 7643.999701 62169.999969
-3539.000009 -7617.000066 72743.000159
-3569.999951 1963.000330 53954.000331
4099.000115 540.000082 55720.000195
3946.000208 3611.000347 54343.000242
3942.000336 -1955.000290 53845.000430
24.000106 -8480.000056 72560.000446
-2817.999819 -7080.000021 72739.999999
274.999768 2681.999578 53612.999729
-5673.000363 -8522.000312 72919.999924
-3569.999681 5328.999917 53954.000391
7057.000447 22.999921 72019.999778
-7114.999994 -4259.000412 73100.000243
3129.999877 -1020.000207 53119.999650
-14575.999938 2064.000292 60412.000409
-8087.999603 -2692.999873 73164.999998
-9496.000263 -8099.000270 73323.999696
-14575.999757 4785.999619 60412.000416
1767.000453 -2710.000440 72380.000399
4723.999558 2984.999684 72199.999829
4173.000154 -1942.000364 57518.000224
-14185.000047 -8155.999786 69664.999947
8462.999751 -2789.999723 72019.999998
-14475.999680 -6322.000368 63961.000010
-14185.000218 -6669.000381 69665.000452
-14411.999521 8769.999611 63528.000202
-3929.999793 121.999623 53660.000393
-3538.999885 -6227.999801 72743.000078
5664.000221 8483.999673 72199.999788
4160.000223 3746.999664 57257.999712
16.999585 1061.999516 53479.999584
3441.000482 4789.999724 53120.000035
3941.000301 861.000216 53350.999558
3941.000166 186.000103 53350.999891
-5672.999756 5721.000193 72920.000053
-14411.999799 1051.999879 63528.000013
3441.000192 5308.999633 53119.999836
-13970.999556 -6778.999631 71592.999827
-5673.000352 1448.000308 72919.999896
1941.000287 3661.000398 53448.000221
4159.999588 2681.999997 57257.999788
2098.999573 1058.000232 53299.999983
-3569.999774 280.000127 53953.999842
-3538.999679 -9006.000017 72743.000111
-3570.000143 -1402.000081 53954.000006
-7115.000060 5734.999820 73099.999872
-1026.999875 -1026.999558 53479.999537
7056.999811 -4195.999750 72020.000402
-3570.000168 3085.000137 53954.000020
-13970.999844 -9803.999811 71592.999532
17.000252 6285.000424 53479.999576
-14322.999690 -2587.000320 65092.999918
-5387.999792 -1969.999910 72920.000067
-1426.999888 2743.999772 53744.000433
-3538.999950 -2059.999970 72742.999563
-14412.000000 6664.999905 63527.999948
-3570.000271 3646.000059 53954.000087
-3929.999828 -1973.999852 53659.999952
-4237.999601 -7080.000344 72740.000252
-14373.000194 -7866.999965 65785.999683
3946.000001 2584.000490 54343.000220
3941.000101 2886.999557 53350.999752
4160.000230 551.000414 57257.999512
4264.000084 1686.000457 60564.000497
-9495.999646 -3667.999852 73323.999965
4288.000261 1950.999734 60834.000001
1432.000381 -1938.999865 53464.000475
-5126.999748 3887.999847 72980.999916
4287.999632 278.999662 60833.999729
-2072.000101 17.000308 53479.999547
-14411.999918 5261.999514 63527.999544
-14185.000455 -5180.999602 69665.000041
4263.999685 -536.999855 60563.999513
4724.000258 1575.000409 72200.000149
4159.999987 4812.999838 57258.000035
-3930.000140 4837.999779 53659.999939
-8543.000324 -8542.999590 73099.999989
-3570.000177 840.999915 53954.000138
3941.000105 1874.000098 53351.000382
3946.000349 4637.999658 54342.999822
8462.999539 8462.999818 72019.999892
5664.000082 4253.999844 72200.000354
-5387.999671 2302.000049 72920.000121
-5388.000189 166.000459 72919.999521
5664.000053 -4206.999676 72200.000476
2473.999900 -2709.999879 72380.000265
16.999506 -1027.000446 53479.999576
4263.999639 -1647.999637 60564.000406
3441.000140 1676.999539 53120.000327
-9496.000107 -5145.000342 73323.999932
-13992.999533 -4852.000259 73548.000110
4287.999970 6968.000328 60833.999686
275.000199 3746.999653 53612.999629
-14412.000182 -350.999721 63528.000472
-13992.999868 -4338.000196 73547.999622
-8543.000347 -4259.000087 73100.000032
16.999876 5240.000063 53479.999960
-14372.999770 -9301.999508 65786.000118
-5127.000314 8129.000114 72980.999503
-1394.000093 -4227.999771 72560.000486
4098.999711 3673.000482 55719.999928
3946.000083 -1523.000092 54342.999694
4724.000061 -1246.000449 72200.000281
-13720.999502 -5353.000086 73556.000360
4723.999887 7215.000403 72200.000242
-14184.999932 -2754.999701 67936.999780
1437.000194 -5630.999670 72380.000099
-5444.999665 -9188.000372 72930.000378
-4238.000442 -8500.999822 72740.000263
-8542.999594 4307.000192 73099.999910
-5388.000269 6574.999714 72920.000493
-1394.000324 -2811.000366 72559.999570
16.999584 16.999963 53479.999782
-14327.000037 -2687.000254 67063.000303
-1027.000347 6284.999698 53480.000414
2850.999763 -5631.000213 72380.000333
-14543.999669 -8982.999787 62170.000241
-1426.999789 563.000156 53743.999616
-5127.000214 -2474.000449 72980.999585
-8542.999689 5734.999797 73100.000259
-13993.000354 -8958.999738 73548.000223
1057.999632 3139.999725 53299.999575
7056.999573 1429.999852 72020.000196
-13412.999816 -2989.999795 73597.999993
-14411.999793 5963.000061 63527.999980
-14544.000399 3487.000172 62169.999836
4723.999840 869.999743 72200.000174
1940.999817 5742.999710 53447.999666
-14411.999874 7365.999941 63528.000371
3441.000223 5827.000153 53120.000059
1941.000349 1579.000153 53447.999990
4723.999767 5099.999678 72199.999767
-5444.999773 -6354.000185 72929.999902
-11526.999785 -8253.000306 73393.000090
4287.999859 5853.000374 60833.999882
-3538.999732 -3449.999625 72742.999793
-13993.000364 -7932.000020 73548.000260
-14373.000228 -3563.000378 65785.999768
4253.999995 -7026.999870 72200.000060
-3164.999721 -539.000085 53841.000259
3940.999621 -1165.000187 53351.000040
4251.999655 -1611.999954 58826.000287
3130.000441 1055.000205 53119.999800
-7114.999827 -7115.000264 73100.000269
-5388.000004 5151.000233 72919.999833
-14543.999690 -4825.999812 62169.999558
-3929.999555 6411.000130 53659.999733
1940.999639 4702.000362 53447.999846
-14411.999716 2454.999607 63527.999612
3440.999501 -915.999922 53119.999778
4288.000012 -1950.999731 60833.999534
275.000261 1616.000437 53612.999949
-1427.000136 -527.000171 53743.999568
4251.999503 -525.000281 58825.999809
-260.999615 -1966.999943 53479.999718
7057.000208 -5603.000018 72020.000259
-5127.000479 6715.000320 72980.999619
-1427.000327 3834.000257 53744.000353
3440.999911 6346.000423 53120.000030
2850.999822 -7045.000455 72380.000243
5664.000435 -1386.999766 72200.000059
-14412.000002 3156.999581 63527.999801
-8543.000189 -7115.000435 73099.999877
3445.999629 2566.999931 53380.000265
3440.999872 -1434.999562 53119.999546
-3165.000457 5035.000031 53841.000213
-3929.999582 2218.000457 53659.999557
3445.999965 -1512.999532 53379.999504
-1958.000338 -1957.000101 53738.999698
275.000452 -1581.000215 53613.000308
-14088.000048 -2934.999842 70989.999715
-14373.000177 -4997.999695 65786.000128
8462.999777 5649.999794 72019.999678
1058.000275 6263.000038 53300.000358
-7102.000019 -2619.000327 73101.999718
-8542.999951 -5687.000307 73099.999616
-3930.000250 2741.999930 53660.000203
1300.999742 -1960.999792 53299.999640
4723.999966 4394.999535 72200.000035
4098.999994 1583.999527 55720.000241
-13992.999829 -8445.999614 73548.000422
4098.999861 -1548.999788 55719.999858
-3930.000368 -1449.999960 53660.000492
4287.999872 3066.000210 60833.999876
4287.999522 2508.000016 60833.999841
-5445.000250 -3519.000073 72930.000344
-14232.999547 -8002.000380 67645.000212
-5126.999777 -1767.000240 72980.999857
3129.999543 5204.999843 53119.999708
3946.000005 530.999826 54343.000175
-13721.000221 -3816.000216 73556.000357
8463.000349 22.999637 72020.000002
4724.000003 3690.000471 72200.000108
1058.000380 4180.999601 53300.000207
274.999810 5879.000134 53613.000459
354.000245 -2715.999978 72560.000238
1437.000165 -4217.000476 72380.000479
3940.999844 4913.000151 53350.999582
-2895.000382 -1945.000376 53846.999541
2099.000389 2099.000230 53300.000474
8463.000426 1430.000487 72020.000078
4252.000374 561.000004 58826.000032
3940.999558 523.000164 53351.000416
1437.000253 -2804.000496 72380.000323
-14543.999762 -3440.999829 62169.999916
-14543.999982 -6211.999551 62170.000041
3441.000291 2714.999685 53119.999987
5663.999985 -2797.000025 72200.000024
-14411.999984 -1051.999942 63528.000370
3440.999562 4271.000407 53120.000029
-3539.000186 2107.000409 72743.000388
1057.999822 -1024.000255 53300.000171
3945.999666 5664.999689 54342.999562
-5126.999539 5301.000010 72981.000462
-14575.999627 -3379.999597 60411.999811
3180.999744 -2710.000374 72380.000052
-1026.999719 4195.999827 53480.000234
-3165.000176 575.999615 53840.999507
3941.000445 -151.999807 53351.000391
-14576.000174 -657.999845 60411.999636
-2349.999962 -1966.999590 53479.999902
-14411.999854 3858.999681 63528.000283
-10090.000319 -2795.000040 73260.999652
3941.000477 5924.999710 53350.999731
4085.000468 -1954.000357 55213.000428
4253.999936 -8436.999819 72199.999776
-1394.000360 -8479.999946 72559.999636
-3569.999726 -841.000285 53953.999993
-9083.999507 -2718.999761 73217.000072
3441.000399 640.000398 53120.000050
4287.999748 -1394.000023 60833.999874
5664.000340 7073.999686 72199.999963
-5387.999666 4438.999817 72919.999562
7056.999636 -7010.000061 72019.999662
1057.999689 5222.000173 53299.999663
-5673.000248 4296.000142 72920.000031
-1027.000260 5239.999713 53480.000273
-7114.999766 -8543.000300 73100.000022
274.999590 551.000141 53612.999775
-3929.999711 -926.000493 53660.000132
4288.000365 -836.000403 60833.999756
3446.000332 3586.999913 53379.999531
3887.999686 -2709.999801 72379.999876
-3539.000418 -670.999562 72742.999614
4251.999963 1648.000235 58826.000350
7056.999875 -1382.999580 72019.999867
-11526.999831 -9757.999777 73393.000349
3130.000328 4167.000247 53120.000320
8463.000402 2837.000196 72020.000275
3446.000436 -493.000175 53380.000405
-1427.000357 6013.999828 53744.000254
-13993.000352 -5365.000211 73547.999983
3130.000064 6241.999698 53120.000243
-1393.999680 -7061.999503 72559.999762
-3929.999947 3266.000354 53660.000396
-5388.000052 8711.000308 72919.999522
-5387.999641 5862.999935 72920.000126
-5673.000220 24.000330 72919.999842
4160.000111 -514.999580 57257.999620
3445.999928 527.000347 53379.999914
-8542.999580 7162.000367 73099.999863
2947.999993 -1968.000009 53405.999963
-3929.999592 -1974.000291 53659.999860
-1305.999625 -1967.000077 53480.000398
3129.999665 3130.000305 53119.999882
-4237.999635 -4237.999904 72739.999541
7057.000491 4243.000297 72019.999582
-14576.000246 -6102.000206 60411.999747
4264.000083 2796.999726 60563.999829
4724.000254 5805.000459 72199.999985
-5672.999808 -7097.000478 72920.000322
-7114.999930 1452.000036 73099.999694
-3929.999839 4313.999708 53660.000336
-13971.000086 -5267.000118 71592.999574
-3164.999892 1691.000266 53840.999559
3941.000485 1198.999988 53351.000119
-2071.999680 1062.000046 53480.000119
-3930.000107 5362.999664 53659.999659
-13972.000434 -2989.999797 73073.000355
-5387.999734 1589.999640 72920.000470
-14575.999747 6147.000157 60412.000152
-3539.000484 4885.000479 72743.000415
-8543.000350 23.999745 73100.000201
4159.999933 5878.999799 57258.000196
-5444.999733 -7771.000335 72929.999842
-14372.999532 -6432.999688 65786.000443
3941.000032 5250.000483 53350.999566
-2817.999801 -4237.999840 72739.999681
2099.000054 4180.999939 53300.000374
3440.999903 121.000021 53120.000493
-14575.999797 -4741.000478 60411.999775
3940.999685 1535.999624 53351.000429
-14576.000473 702.999598 60412.000428
-14475.999775 -4911.999679 63960.999993
-14131.000326 -2857.999672 69963.000289
2099.000221 -1024.000206 53299.999555
-3539.000177 -4839.000490 72742.999973
-5672.999696 -4248.999669 72919.999901
1057.999780 16.999883 53300.000257
5663.999977 5663.999867 72199.999515
5663.999992 -8436.999738 72200.000314
-14412.000335 8068.000149 63527.999665
-5388.000218 -545.999702 72919.999648
4264.000448 3907.999781 60564.000285
3129.999620 2092.000354 53120.000415
1062.999967 -2715.999634 72560.000024
3940.999708 -1840.000490 53351.000006
23.999785 -4227.999646 72560.000090
-3165.000129 -1654.000323 53840.999660
-5127.000159 2474.000343 72981.000044
3941.000234 2210.999659 53351.000276
1436.999565 -7045.000204 72380.000395
-1426.999662 1654.000050 53744.000497
4159.999762 -1580.999657 57257.999765
2099.000277 6263.000009 53300.000166
-14233.000173 -9461.999637 67644.999640
4724.000132 6510.000452 72199.999686
-5388.000295 3014.999741 72919.999528
4107.000341 -1973.999932 55973.999842
-1027.000486 1061.999561 53480.000336
4263.999763 5018.999546 60563.999509
-3126.999968 6305.999575 53660.000329
-1062.999814 -2715.999805 72559.999701
3441.000092 -398.000054 53119.999576
23.999882 -5645.000302 72559.999942
-5126.999834 4594.000338 72980.999829
4252.000254 4907.999952 58825.999554
-3569.999712 4767.999673 53953.999940
-14476.000032 -9143.000078 63960.999819
4071.000131 -1967.999892 54460.000432
3440.999875 3752.000283 53120.000467
-14576.000485 3424.999842 60411.999944
-5160.999508 -2520.999928 72949.000110
4287.999692 3622.999957 60834.000077
-5127.000118 1767.000066 72980.999700
5663.999655 24.000344 72200.000194
-14576.000480 7508.000120 60411.999689
-2881.999956 -1974.000116 53659.999591
3129.999776 16.999790 53119.999905
-13993.000072 -5879.000105 73548.000170
4723.999855 -2656.000037 72200.000312
3940.999633 4574.999653 53351.000095
17.000159 3150.999751 53479.999993
-13721.000066 -6890.000008 73555.999864
-5673.000136 8569.000239 72919.999812
4287.999834 1393.999656 60834.000047
-5127.000002 3181.000499 72980.999577
1437.000111 -8457.999664 72379.999810
-1027.000182 3151.000481 53480.000213
8462.999880 -5602.999786 72020.000397
5663.999998 -7027.000337 72200.000179
-2071.999836 5240.000427 53480.000403
3445.999729 4607.000036 53380.000383
-1394.000136 -5645.000011 72559.999949
-3127.000033 2113.999786 53660.000272
3941.000324 2548.999788 53350.999985
3940.999570 -1502.000342 53351.000013
-3126.999914 -1030.999894 53659.999552
-4238.000253 -2817.999880 72739.999988
3440.999843 -1953.999504 53120.000421
259.999737 -1960.999636 53300.000138
-245.000117 -1948.999943 53618.999915
-11526.999811 -5243.000037 73392.999756
4724.000234 165.000038 72199.999547
-3126.999977 3161.999991 53659.999978
-3569.999564 4207.000094 53953.999501
275.000170 -514.999842 53613.000034
-11526.999613 -6747.999928 73392.999616
-7390.999730 -5035.000249 73077.999705
275.000340 4813.000352 53612.999844
-2071.999948 3150.999602 53480.000403
4251.999765 2735.000064 58826.000103
-7115.000351 -5686.999885 73100.000358
4098.999827 2628.999611 55719.999560
8463.000124 -7010.000397 72020.000009
-14232.999615 -6543.000442 67645.000485
-3930.000232 5887.000299 53659.999634
-14544.000461 2101.000409 62170.000359
3372.000265 -1954.000261 53119.999806
-14412.000115 1754.000439 63527.999500
-14438.999828 -2520.999738 64242.999578
-14329.999599 -2661.000068 66073.000238
1941.000120 -1544.000357 53448.000031
-4238.000332 -5659.000491 72740.000442
4098.999594 -505.000192 55720.000025
-2818.000128 -5658.999652 72739.999655
4288.000306 -278.999978 60833.999586
-1026.999893 17.000290 53480.000077
-7114.999937 2878.999603 73099.999625
4251.999706 3821.999721 58825.999856
-14544.000411 -7596.999761 62170.000298
-3539.000189 6273.999627 72742.999519
-8542.999929 8590.000255 73100.000232
-14544.000350 715.999575 62170.000076
-9495.999848 -9576.000383 73323.999907
-14576.000232 -7462.000020 60411.999731
-14184.999642 -9643.999972 69665.000056
-13970.999811 -8291.000315 71593.000038
-5126.999814 1060.000113 72981.000052
-7115.000366 7162.000434 73099.999958
-3165.000448 6150.000036 53840.999507
8462.999808 4242.999904 72020.000254
7057.000202 -2790.000123 72020.000020
-2071.999832 -1026.999844 53479.999642
-7114.999518 -1404.000177 73100.000300
3941.000476 3223.999580 53351.000151
-3569.999782 1402.000069 53953.999777
-3570.000289 7012.000244 53953.999930
-5388.000194 877.999982 72919.999818
-5126.999702 6008.000102 72980.999919
4263.999700 6130.999796 60564.000158
-8543.000290 1452.000226 73100.000426
2850.999705 -4217.000056 72379.999818
7056.999509 7057.000433 72019.999792
-13992.999692 -3312.000439 73548.000061
2850.999879 -8457.999587 72380.000259
-3538.999600 718.000352 72742.999931
-3930.000315 646.000457 53659.999635
4264.000193 573.999697 60564.000002
2099.000093 5221.999649 53300.000412
-2071.999917 6284.999527 53479.999583
4723.999862 7920.000427 72199.999887
4330.999705 -1963.000266 59887.000081
2851.000238 -2803.999644 72380.000218
3440.999720 2195.999826 53119.999530
-14543.999739 -2055.000043 62170.000137
-14544.000178 -669.999739 62170.000308
-14411.999915 351.000242 63527.999545
3940.999876 5587.999982 53351.000452
-11526.999792 -3737.999544 73392.999629
3940.999584 4236.999929 53351.000136
-7115.000083 -2831.999613 73099.999909
-14232.999742 -5082.999812 67645.000324
-3570.000011 -1963.000243 53954.000457
-14575.999963 -8822.999905 60411.999771
-3196.999729 -2722.999629 72739.999728
4270.999791 -1943.999513 59089.999553
-3930.000132 -402.000411 53659.999785
4287.999518 -1951.000148 60834.000344
1057.999742 2098.999992 53299.999970
24.000007 -2810.999989 72560.000497
-3570.000037 -280.000196 53954.000365
7056.999709 -8415.999536 72020.000349
7057.000090 5650.000225 72020.000014
4099.000497 4718.000121 55719.999993
-7115.000395 24.000272 73099.999724
-14476.000166 -3502.000326 63961.000485
-3569.999717 6450.999920 53954.000143
-1163.000334 -1973.999751 53745.000092
4723.999824 -541.000100 72200.000243
3940.999990 3899.999923 53350.999622
-3127.000218 5257.999652 53659.999673
8463.000217 -1382.999504 72019.999695
-14232.999844 -3624.000203 67645.000238
-7390.999511 -3588.999711 73077.999992
-5127.000472 352.999759 72981.000130
2099.000363 16.999945 53300.000261
-7390.999682 -6480.000469 73077.999642
-5387.999952 7999.000376 72920.000277
-3569.999553 2524.000332 53954.000210
3445.999802 5627.000372 53380.000121
-8543.000137 2878.999786 73100.000062
-11225.000154 -2878.000184 73429.000219
-5444.999752 -4937.000206 72929.999910
-3539.000116 3495.999641 72743.000028
4724.000434 -1950.999984 72200.000236
-5387.999758 7287.000091 72920.000451
3694.000162 -1947.999707 53364.999539
-14412.000272 -1753.999800 63528.000480
4724.000342 8625.000362 72199.999560
2341.999734 -1961.000092 53299.999848
-2071.999756 4196.000324 53480.000336
-8543.000296 -2832.000371 73099.999810
-5127.000024 8834.999681 72980.999971
-13992.999602 -3825.000472 73548.000110
3446.000174 1546.999928 53380.000489
-3127.000366 4209.999619 53659.999561
-5387.999685 -1258.000068 72920.000033
-13720.999529 -8426.000197 73555.999797
4135.999975 -1958.000343 56742.000312
1058.000030 1057.999685 53299.999642
2194.000288 -1954.000142 53438.999837
1821.999693 -1961.000245 53300.000177
-2486.000272 -2723.000311 72740.000113
4251.999519 5994.999969 58825.999706
-782.999723 -1966.999702 53480.000385
-14184.999503 -3694.000155 69664.999741
-7391.000162 -7925.000424 73077.999760
3941.000365 3562.000286 53350.999697
-5673.000072 -2824.999976 72920.000076
-3929.999836 3789.999783 53660.000108
4288.000033 5295.999782 60834.000285
8463.000290 -4195.999621 72020.000158
-1026.999905 2106.000122 53480.000172
-14544.000315 6258.000031 62169.999860
2098.999845 3140.000130 53300.000384
17.000326 2105.999614 53480.000329
-2817.999707 -2817.999500 72740.000297
-5127.000216 7421.999889 72980.999545
-14035.000213 -2961.999816 72026.999857
3941.000206 -490.000295 53351.000305
-3127.000000 1065.999857 53660.000041
-14412.000070 4560.000349 63527.999884
-1427.000275 -1616.999797 53744.000069
-6126.000265 -2593.999720 73030.000099
4099.000391 5762.000184 55719.999589
3440.999902 1159.000232 53119.999985
23.999963 -7062.000133 72559.999953
-3164.999618 3921.000274 53840.999514
3940.999690 6263.000241 53351.000160
5663.999668 1434.000202 72199.999998
3946.000045 -496.000294 54342.999676
-3538.999923 7662.999718 72742.999936
3946.000069 1557.999781 54343.000397
-13992.999519 -7419.000292 73548.000211
-14576.000246 -2018.999804 60411.999775
4724.000039 2279.999748 72200.000311
4253.999732 -5616.999621 72199.999908
1940.999753 2619.999683 53447.999667
3441.000116 3234.000032 53120.000379
-7114.999901 4307.000119 73100.000483
4288.000399 4738.000285 60834.000007
4253.999724 -2797.000058 72199.999720
5664.000222 2843.999541 72200.000437
7056.999584 8463.000456 72020.000228
-3930.000418 1694.000154 53659.999991
-353.999670 -2715.999787 72559.999549
-14162.999975 -2781.999699 68944.999901
4287.999827 4180.999517 60834.000197
-2071.999586 2105.999678 53480.000453
-7390.999953 -9370.000271 73077.999510
8462.999606 7057.000057 72020.000254
7056.999555 2837.000361 72019.999548
-7114.999806 8589.999936 73100.000030
-5126.999903 -1060.000339 72980.999664
8463.000265 -8415.999563 72019.999761
-14475.999815 -7732.000263 63960.999905
-14411.999736 -2454.999933 63528.000161
4253.999680 -4207.000000 72200.000403
-5341.000241 -2729.999555 72920.000190
2853.000367 -1953.999662 53119.999629
-3406.000346 -1973.999690 53659.999516
-1775.999547 -2723.000080 72740.000246
4217.999913 -1960.999660 58299.999623
-12252.999887 -2905.000019 73451.999641
-8542.999786 -1404.000473 73099.999728
-3126.999630 16.999618 53660.000475
4159.999910 1615.999982 57258.000198
-2818.000192 -8501.000061 72739.999578
-5673.000319 -5673.000048 72919.999599
-5126.999657 -352.999916 72981.000008
-14543.999526 4873.000287 62170.000355
5664.000113 -5617.000339 72200.000484
-13992.999970 -6905.000388 73548.000167
-3906.999574 -2723.000211 72740.000342
-5672.999570 -1399.999715 72920.000026
-3569.999982 5890.000467 53954.000331
4288.000173 6409.999525 60833.999858
-5387.999815 -2682.000374 72920.000431
-13971.000415 -3755.000354 71592.999978
-3930.000128 1170.000156 53659.999938
-1828.000158 -1966.999726 53479.999657
17.000335 4196.000427 53479.999613
-1427.000066 4924.000037 53743.999863
-13721.000451 -9963.000322 73555.999557
-5388.000021 3727.000164 72919.999832
1941.000051 538.000495 53448.000163
4287.999864 836.000460 60833.999839
780.999670 -1960.999553 53299.999658
-5673.000397 7144.999809 72919.999807
-5673.000146 2871.999537 72920.000249
533.000383 -1965.000046 53607.999748
-13992.999662 -9985.999679 73548.000146
4582.999714 -2702.999761 72199.999726
