1248  
27.850301 -17.970299 134.875148 
-25.310101 -17.089901 117.229948 
-30.421501 -21.008499 144.254249 
0.114400 -1.784400 50.132200 
-18.264400 12.484400 101.627799 
17.396600 -1.906600 99.023301 
21.175900 -19.185901 135.392952 
21.063600 -19.043600 132.826796 
-22.225100 -15.724900 108.897448 
8.249500 -14.839500 101.639749 
29.463299 -5.123300 142.671651 
28.427000 -18.197000 149.973500 
20.364199 6.405800 114.632099 
14.811500 -9.141500 105.235749 
-15.004000 -8.116000 98.497997 
19.542701 -11.952700 123.446353 
-10.693900 -4.016100 58.998050 
-18.223399 -13.286600 96.398302 
-24.134400 11.784400 107.332801 
-23.475999 8.946000 104.191998 
-4.457700 9.027700 56.901148 
16.912700 15.277300 98.476347 
12.924100 12.075900 77.677051 
-21.715099 6.515100 96.397452 
10.053100 -2.053100 61.576548 
8.974900 -5.644900 68.852447 
29.422501 -20.732500 142.186247 
31.027899 -19.127900 149.983950 
27.245601 -13.955600 143.737795 
27.104600 -21.824600 149.962300 
22.975500 -13.585500 143.232755 
17.288300 -16.248301 111.504147 
11.139900 -5.079900 66.779953 
5.708200 -5.798200 66.274099 
9.299900 -4.059900 60.559951 
18.658001 -17.238001 120.339001 
28.983600 -7.483600 149.996800 
27.157400 -17.317400 149.988700 
30.981799 -14.521800 149.960900 
20.507200 17.852800 112.518598 
14.246800 -7.776800 92.238399 
15.299200 -12.349200 106.839596 
20.051600 -15.941601 125.510798 
17.014300 -12.824300 114.637149 
22.088301 -9.988300 120.869147 
18.696699 -9.706700 114.113353 
21.106100 -15.646100 129.163047 
22.033800 -2.333800 121.891898 
-19.762800 -11.657200 96.948599 
-20.256000 10.436000 98.992001 
-2.200600 2.110600 56.369702 
4.071700 -2.541700 66.255849 
3.152600 -1.982600 62.086299 
9.701500 -1.501500 62.625749 
14.424000 10.726000 88.107003 
-17.650600 6.960600 97.964700 
-16.106900 1.746900 89.671550 
3.865300 -3.635300 75.612649 
3.290200 -2.310200 69.370102 
-16.555599 8.445600 91.712202 
-7.549400 1.549400 62.095299 
6.940000 -9.100000 95.914998 
7.074300 -4.804300 73.542148 
-19.513600 4.613600 100.078202 
-20.076300 6.286300 102.651850 
-18.569800 -9.290200 100.035102 
-20.560200 1.840200 99.014901 
-17.004301 -7.375700 95.372852 
-15.204500 -11.905500 99.517748 
-11.031800 -10.748200 96.414102 
-4.650500 -7.619500 80.814746 
10.709000 -15.099000 110.989500 
9.578600 -12.348600 107.329301 
0.532000 -11.422000 103.195997 
-20.686101 6.686100 104.721952 
-15.619500 -8.810500 100.040252 
-15.200400 -10.819600 104.194798 
-12.088800 -11.001200 104.220598 
10.674700 -9.114700 102.117354 
20.819301 -18.709300 132.819646 
20.199099 -12.049100 128.674543 
19.385099 -11.085100 123.957550 
-20.917200 -9.272800 92.751403 
-4.043800 -2.546200 51.163101 
-9.308000 -4.242000 58.466000 
-16.998900 -14.221100 97.475553 
-15.706300 -13.303700 92.791853 
-19.028101 -12.051900 90.675951 
-22.591499 15.911500 100.584248 
-15.927600 14.587600 91.711202 
3.550800 8.709200 54.815400 
16.712400 11.697600 99.021201 
-19.986700 12.906700 96.921649 
-11.174600 7.344600 64.152697 
-13.900700 8.860700 77.674651 
11.669300 -3.059300 65.219648 
15.810500 0.239500 89.140254 
5.729900 -1.889900 53.249949 
7.298300 1.991700 57.419149 
23.049200 11.560800 111.494597 
20.645301 4.974700 113.057652 
13.972400 -3.812400 76.116204 
25.074399 0.045600 121.367202 
24.139500 4.980500 116.704751 
24.998800 -17.598800 145.279407 
26.568401 -16.038400 146.854205 
29.687400 -21.817400 149.958700 
22.317100 -19.487100 141.113554 
25.554001 -17.094000 148.407002 
23.782200 -13.892200 146.856105 
27.890600 -16.050599 147.355294 
12.177100 -4.727100 67.308550 
9.268400 -5.148400 63.159200 
10.442500 -4.652500 60.026251 
11.252200 -4.762200 65.236098 
8.167200 -3.957200 64.183597 
7.972200 -4.402200 66.261099 
-19.830300 13.350300 103.164847 
30.963699 -7.213700 149.951850 
19.028700 14.271300 109.414352 
18.123000 15.257000 105.256499 
25.123199 -0.783200 126.596598 
23.697200 8.712800 116.683601 
22.574900 2.235100 119.282450 
22.567500 9.082500 114.078753 
23.254100 5.555900 117.232048 
20.163701 14.096300 113.586848 
24.498400 -20.888400 149.954200 
18.343900 -7.843900 101.601949 
15.379100 -10.709100 108.904548 
15.561800 -12.021800 110.440903 
12.753200 -13.093200 108.906598 
17.214001 -12.934000 112.521998 
17.983100 -12.533100 114.631549 
12.877700 -11.097700 103.713851 
12.889700 -9.189700 101.594849 
12.393600 -13.353600 103.161797 
20.851200 -17.701200 130.215605 
20.459600 -17.209600 127.624799 
20.577200 -13.737200 125.553598 
19.710300 -16.280299 122.945149 
19.676200 -15.496200 122.928099 
12.485200 -11.985200 105.252599 
11.968600 -13.238600 106.829296 
21.251200 -8.951200 115.150604 
21.900801 -7.770800 118.780403 
19.093600 -0.583600 105.761803 
22.807101 0.602900 117.213548 
22.114700 6.175300 112.542348 
12.904200 -9.734200 107.327101 
11.800100 -10.420100 109.390052 
19.031600 -11.781600 121.380802 
21.798900 2.881100 117.214448 
22.072500 5.927500 114.596249 
22.255400 -4.445400 119.797696 
22.579200 -0.669200 119.284600 
18.505701 -11.765700 116.707851 
23.753101 -11.153100 131.261549 
23.506001 -2.996000 123.983000 
23.473301 -5.973300 123.966650 
22.830800 -4.360800 121.870398 
-19.869601 -13.140400 97.955200 
-20.318900 -11.191100 95.365552 
-21.455201 -1.124800 98.992401 
-20.642100 -9.617900 96.928949 
-22.819500 11.419500 103.675251 
-21.773300 11.133300 102.113354 
-21.579701 9.669700 99.015151 
-2.144400 1.054400 53.792799 
-4.323100 1.703100 55.838451 
-0.517400 -2.832600 58.471300 
-1.598500 -0.901500 53.790749 
-3.327100 -1.722900 54.831450 
-6.151400 2.481400 58.479300 
-7.639500 -2.870500 58.995250 
-4.462400 -3.167600 61.063802 
-8.892300 -3.417700 59.488850 
2.383600 -2.413600 66.271799 
-1.912000 4.502000 55.359001 
8.304700 -1.794700 60.532351 
6.917900 -0.907900 57.918949 
0.455600 1.654400 54.312800 
4.490400 -0.380400 55.310201 
4.719600 1.400400 55.329801 
5.251200 -3.031200 61.070602 
4.253600 -2.293600 55.836801 
-1.507200 5.247200 57.431399 
9.099200 -1.539200 61.579598 
-3.477400 5.587400 57.436299 
5.813900 -3.023900 62.626949 
5.740100 -3.320100 64.685051 
7.698300 0.961700 61.079152 
7.038400 3.821600 60.524201 
-1.123300 5.973300 58.473350 
-11.906800 -9.293200 96.391602 
-11.910600 -8.269400 97.959700 
0.503600 -10.243600 101.626799 
-4.825000 -9.885000 98.487497 
17.830800 5.989200 98.510397 
-14.861700 10.991700 86.029151 
15.921900 13.058100 92.750953 
15.026600 9.873400 88.103303 
-19.060499 10.430500 98.994751 
-18.130300 12.180300 96.929849 
-17.176200 10.856200 94.316901 
-17.909900 2.589900 96.955049 
-19.156400 4.436400 96.916799 
-19.930999 4.581000 98.499497 
5.521700 -4.311700 71.965850 
-19.701600 12.661600 100.069202 
-20.812100 11.672100 98.483947 
-20.825200 12.795200 96.917399 
-18.757200 13.337200 93.281400 
-18.345499 13.475500 90.702251 
-20.228600 9.038600 97.455703 
-18.708099 7.788100 96.405952 
-16.348100 9.858100 90.195947 
-7.977300 3.337300 60.541351 
-11.808700 4.728700 71.995650 
-10.434000 3.634000 65.202998 
-5.086500 -4.323500 71.466753 
0.870600 -3.170600 75.100303 
-2.508200 -4.341800 75.095903 
-9.061500 5.131500 65.209248 
0.447400 8.312600 61.558698 
0.540500 9.129500 65.230248 
-7.760200 6.150200 62.099899 
-5.932200 9.472200 62.098899 
-10.075900 7.105900 68.332051 
7.026000 -4.076000 69.872998 
10.748600 -1.578600 65.744302 
7.064500 -3.804500 67.802246 
-14.228600 7.048600 81.830697 
0.624000 -3.784000 78.732002 
-2.199100 -7.120900 83.945449 
0.910300 -4.610300 79.770153 
-1.691200 -6.778800 81.879397 
-14.983700 -7.696300 96.913149 
-8.715400 -8.384600 93.307300 
-13.627000 -7.513000 93.826496 
13.315700 8.914300 81.347851 
14.384600 -1.814600 84.457303 
3.888300 -2.638300 71.449153 
-20.895399 9.765400 102.112304 
-19.105800 9.415800 100.592098 
-19.144600 7.074600 99.522698 
-21.144901 7.764900 101.102553 
-21.158100 5.308100 100.035952 
-20.203401 4.733400 100.078302 
-20.285100 6.535100 99.552448 
-19.867501 6.977500 97.956250 
-16.701200 -10.818800 102.654400 
-16.249600 -11.180400 101.110203 
-19.134101 -12.015900 97.987950 
-16.947700 -11.412300 97.981150 
-17.707000 -10.403000 98.506497 
-19.436600 -9.163400 100.031702 
-21.721901 2.901900 99.029051 
-21.651400 4.391400 101.599299 
-17.619800 -10.570200 96.935099 
-19.640300 -10.629700 95.374852 
-18.564900 -1.845100 97.447553 
-17.973400 -4.876600 94.328301 
-17.237900 -8.492100 96.956049 
-19.617101 -9.482900 95.876448 
-19.072001 -7.548000 95.898998 
-20.384401 1.644400 95.907798 
-16.475200 2.025200 89.642400 
-0.915300 -11.574700 99.532348 
5.236500 -11.196500 101.118253 
7.105100 -12.185100 103.692551 
-4.833600 -12.456400 99.548198 
3.587700 -12.287700 104.233848 
-11.012100 -10.037900 99.548948 
-14.849800 -12.400200 99.520098 
-11.471800 -11.978200 100.044102 
-13.937900 -10.512100 99.546048 
-14.697600 -10.622400 102.126204 
-16.399499 -13.070500 97.435253 
-16.645599 -10.554400 96.437202 
-14.318900 -9.381100 96.435552 
-16.075000 -11.765000 97.432503 
-13.879100 -11.310900 96.405452 
8.370300 -6.840300 78.730152 
5.836600 -8.476600 90.158297 
8.049600 -7.739600 84.989800 
6.871800 -13.841800 100.060902 
2.995900 -5.875900 79.272949 
-9.843800 -11.666200 93.308100 
-10.480200 -12.669800 96.439902 
4.401700 -4.881700 74.040852 
4.844300 -6.424300 70.932149 
6.401900 -6.821900 76.635950 
-2.854500 -7.305500 75.117753 
-12.435900 -5.864100 77.672051 
-16.050100 -6.369900 87.584948 
-14.378200 -7.051800 91.210898 
-17.341500 -3.838500 91.719252 
-16.670000 -7.100000 92.790003 
-16.213400 -6.776600 90.183297 
-14.210300 -9.339700 95.369852 
-0.693600 -3.496400 66.798203 
1.874500 -4.614500 73.032251 
16.307500 -14.677500 114.098753 
12.886800 -14.746800 108.388402 
16.145200 -14.355200 111.992601 
19.079701 -15.199700 120.344851 
18.376101 -14.066100 116.163047 
-6.587500 -13.632500 101.591249 
-12.355600 -12.534400 102.152204 
2.780700 -13.090700 104.190348 
-16.055700 -13.014300 100.557148 
-18.943901 -9.896100 101.638049 
-19.953901 2.633900 100.033052 
-11.035400 -9.444600 102.652300 
-14.802200 -9.647800 103.188897 
-19.080200 4.940200 100.034902 
-19.051199 9.191200 102.634400 
11.654100 -9.624100 105.782053 
3.878300 -11.078300 104.199148 
10.226000 -14.306000 110.443003 
-20.797801 -12.252200 92.231099 
18.481301 1.958700 105.255649 
3.080900 -10.280900 101.090453 
-20.208101 13.128100 90.710951 
-9.834500 10.214500 64.157747 
-21.474900 13.394900 95.362552 
2.548200 -1.428200 49.629099 
6.123200 -2.783200 54.286600 
4.486300 2.443700 51.688151 
5.448100 2.181900 53.784049 
9.673400 0.846600 60.536701 
9.712600 8.327400 65.196298 
22.982500 17.437500 112.026251 
23.942899 12.657100 115.671450 
18.971300 8.268700 104.755652 
21.303101 8.846900 111.491547 
21.161500 11.518500 111.515747 
20.607900 -4.577900 108.883948 
22.374501 15.865500 108.362252 
29.379899 -7.159900 148.399952 
22.148200 -18.958199 138.514098 
23.999200 -14.069200 146.359601 
30.092000 -20.322000 145.316007 
25.465401 -18.835400 147.887698 
9.726500 -4.096500 61.043252 
10.248800 -4.328800 62.629399 
9.941900 -2.591900 62.635949 
10.080400 -1.990400 63.665200 
5.986500 -3.566500 66.793253 
7.280200 -4.320200 66.260099 
31.057399 -6.397400 149.998700 
21.694800 8.405200 114.607399 
22.731200 13.688800 113.030602 
22.918801 11.191200 113.589398 
21.985999 12.554000 113.048002 
21.906799 11.493200 113.573398 
22.248400 1.821600 119.794196 
16.536301 -2.806300 94.323151 
18.774899 -2.934900 105.782453 
15.962600 -10.982600 108.911298 
17.625200 -11.455200 112.532598 
14.680600 -10.850600 106.805296 
14.956100 -11.846100 108.878048 
16.422500 -11.012500 112.516248 
15.800800 -10.710800 110.950400 
16.323700 -13.233700 110.441853 
12.565700 -12.055700 101.607849 
12.073700 -9.623700 103.671851 
9.856000 -6.856000 78.237998 
19.813300 -12.463300 123.476653 
11.211700 -10.151700 103.685851 
13.702600 -11.622600 107.356301 
13.741200 -11.611200 106.795596 
10.592600 -14.672600 109.941299 
10.970000 -14.090000 104.730002 
20.161701 -8.141700 108.380852 
18.341101 -2.181100 103.670551 
21.176500 -4.256500 115.113254 
19.864300 -3.604300 110.972150 
19.000100 -2.800100 107.320051 
15.300200 -9.330200 107.320101 
17.744199 -11.234200 114.607099 
18.064699 -11.294700 116.687351 
18.155199 -10.645200 117.212598 
22.239300 0.710700 119.319650 
23.097000 5.023000 116.683501 
22.833101 4.646900 119.306550 
23.943600 0.026400 121.896798 
24.344800 0.935200 121.887398 
22.038699 5.551300 114.109353 
21.817901 7.242100 114.098953 
22.650900 6.489100 114.590449 
22.047599 -3.577600 117.238798 
23.728501 -3.518500 121.894248 
21.818500 -1.128500 117.224248 
20.224299 -3.374300 113.042152 
20.642800 -3.622800 115.146404 
23.035299 0.004700 119.307650 
22.762501 -3.402500 119.271250 
26.109100 -5.889100 131.774553 
26.260599 -2.320600 129.175297 
24.383699 -5.773700 126.556848 
24.585801 -3.455800 123.987900 
24.507800 -1.517800 123.478903 
23.095200 -1.885200 121.892598 
-21.069200 -10.340800 95.895398 
-21.263501 -9.066500 97.443253 
-21.871401 11.921400 102.154304 
-22.629499 10.979500 102.125254 
-3.089700 4.849700 54.810150 
-1.995700 1.025700 53.247149 
-3.808300 4.718300 55.315851 
-2.563500 -2.246500 53.773249 
-4.778300 -1.591700 55.310851 
-3.715500 -2.444500 54.827250 
-2.715500 -1.094500 53.787249 
-4.852400 3.982400 58.473800 
-4.653400 4.553400 57.393299 
-4.061100 2.651100 56.904448 
-2.546700 2.416700 55.326651 
-8.068300 -1.411700 58.985850 
-3.838900 1.728900 56.915548 
-7.604500 -2.105500 58.462750 
-6.998900 -3.171100 58.460550 
-5.521700 0.361700 57.949149 
-2.973200 1.153200 55.353401 
-1.923500 -0.326500 55.353251 
-10.482400 3.952400 67.303800 
-3.653800 -3.206200 65.213098 
-1.448400 -3.021600 66.765803 
-9.218600 3.098600 65.190698 
-0.462900 2.592900 54.273550 
8.063300 -0.003300 58.476650 
2.443600 -1.503600 52.196802 
1.720900 -0.570900 51.685451 
0.261300 -1.001300 51.715651 
-1.007300 0.077300 53.236349 
1.049300 -1.919300 54.794650 
-1.498700 0.418700 54.270650 
-1.444500 0.014500 54.827750 
4.184200 2.065800 54.802100 
4.460000 2.760000 53.254999 
6.734300 2.025700 57.927149 
4.345700 1.744300 56.382852 
-0.237900 -2.462100 58.461050 
5.872000 -0.702000 55.336001 
6.442400 1.107600 57.931199 
3.319600 -1.989600 58.474800 
4.282500 1.017500 55.351251 
-1.445000 3.595000 55.877501 
-0.485100 2.845100 55.877451 
-1.454600 2.024600 54.822700 
5.745400 2.754600 55.857701 
5.633700 0.426300 55.311851 
4.461200 -0.811200 52.715598 
3.570900 1.759100 53.270449 
3.250700 0.399300 52.195352 
5.723800 3.876200 56.881898 
-0.977000 5.387000 57.396499 
4.967600 -2.257600 53.778799 
-1.971400 5.711400 56.384302 
8.033400 1.716600 60.016701 
9.139800 -0.679800 61.599898 
8.949100 -0.669100 61.074552 
9.047300 -1.457300 62.088649 
7.109500 4.410500 59.479750 
7.933100 3.676900 60.556551 
-8.984900 -9.175100 95.897548 
0.598900 -9.778900 100.034452 
-17.128199 12.078200 96.925899 
16.645199 2.394800 95.882598 
15.626100 1.453900 90.703051 
14.841600 12.258400 90.150797 
-15.930800 9.370800 90.169597 
15.111600 10.078400 89.650800 
-18.572300 12.242300 100.033852 
-19.811201 12.281200 97.984400 
-16.347099 13.737100 91.741452 
-18.811701 13.021700 92.269149 
-17.837300 13.337300 92.276349 
-17.081200 13.271200 93.314400 
-17.856500 4.066500 98.516747 
-18.786001 4.746000 98.476997 
-21.000300 3.670300 98.474847 
-20.752300 2.872300 98.513847 
7.249400 -5.679400 69.369702 
5.777500 -4.487500 70.408752 
4.603200 -3.233200 67.296600 
5.974100 -4.854100 67.287050 
5.335200 -3.745200 69.372602 
-16.499700 13.289700 90.685151 
-20.912000 12.362000 96.958999 
-21.594200 12.804200 98.517897 
-20.775100 12.475100 98.502447 
-20.759800 13.199800 96.950099 
-15.283200 13.193200 86.533398 
-19.654900 12.824900 93.807546 
-18.396400 7.436400 94.846797 
-18.371999 13.702000 89.129004 
-7.789900 4.059900 59.475050 
-9.356500 1.886500 62.606749 
-10.212100 3.162100 62.613949 
-15.292300 10.132300 86.038851 
-14.785000 9.135000 81.832497 
-10.827800 2.417800 64.156097 
-10.210600 2.390600 65.759702 
-6.756800 -3.573200 65.236598 
-9.469600 1.919600 64.170197 
-2.924400 -3.455600 69.902798 
-10.137300 5.887300 68.861347 
-12.612300 6.612300 77.713851 
1.076400 9.473600 64.698201 
-2.029800 6.949800 57.415099 
3.301900 -2.221900 67.790946 
8.036200 6.673800 64.173097 
-10.128600 6.178600 66.245699 
-8.139300 6.189300 61.570348 
-4.122300 7.932300 58.973850 
-4.172100 8.732100 59.488950 
-8.603300 3.333300 62.608349 
0.563200 -2.753200 66.791603 
0.562000 9.988000 68.346001 
-9.018100 7.958100 62.615949 
-6.984000 8.674000 61.562998 
-9.686800 7.526800 64.176597 
-7.311800 6.531800 62.604099 
-11.889900 7.249900 71.455053 
-10.956700 7.646700 65.726652 
-10.665100 6.305100 70.952449 
-9.969900 7.579900 65.210048 
-9.153600 7.653600 65.723202 
9.043200 -4.543200 67.796596 
8.712100 -4.102100 66.776053 
11.849900 -4.369900 67.794946 
6.775700 -3.965700 71.967850 
10.736500 1.233500 65.738252 
11.129600 8.350400 71.974800 
9.522200 -0.442200 62.591099 
8.286700 3.443300 61.598348 
9.468700 0.561300 62.619349 
-11.538400 -8.511600 96.410802 
14.541400 9.548600 87.060702 
13.429200 -2.329200 77.184597 
-19.824700 11.724700 101.637649 
-20.738800 10.828800 100.560598 
-20.055999 10.966000 100.551998 
-19.408699 9.348700 98.990651 
-20.488900 9.278900 101.080553 
-21.865900 7.415900 99.537048 
-21.178800 4.638800 98.470597 
-20.600600 5.500600 101.599699 
-20.710699 6.380700 97.959650 
-20.677699 6.937700 97.976150 
-20.338200 5.858200 99.525898 
-20.277300 11.417300 102.156354 
-20.647399 7.817400 102.631300 
-16.013600 -13.416400 100.578198 
-18.070301 -13.779700 99.544848 
-19.446700 -12.923300 99.541648 
-17.209300 -11.720700 99.545348 
-16.739900 -11.550100 99.520048 
-19.026900 -9.703100 100.061552 
-17.887701 -12.452300 99.546148 
-15.971300 -11.148700 99.559348 
-15.678100 -9.831900 101.605949 
-15.446900 -11.083100 102.661550 
-20.269301 -9.190700 100.045352 
-19.640699 -10.939300 98.474647 
-21.477400 5.407400 100.046302 
-18.805799 -11.964200 96.437102 
-17.937401 -2.042600 95.886298 
-17.162600 -0.177400 91.728702 
-18.283601 0.073600 95.878198 
-20.225801 -2.194200 95.902098 
-19.877400 -1.292600 97.466303 
-17.522800 -8.377200 98.513597 
-19.861900 -0.118100 97.474053 
-19.426100 1.256100 97.436953 
-19.457500 -9.512500 96.936249 
-18.080600 -9.899400 96.954699 
-20.346100 -9.883900 95.351952 
-18.459300 -7.490700 96.930349 
-18.618901 -7.741100 95.880548 
-18.978800 -8.421200 96.920599 
-20.064400 -7.895600 97.452803 
-19.394500 -4.695500 97.452753 
-19.944901 -8.645100 94.317551 
-20.432301 -8.337700 95.883848 
-19.915901 -5.434100 95.892048 
-21.048100 -0.571900 95.905948 
-14.592100 8.032100 80.798946 
-1.273500 -10.286500 100.048252 
2.758700 -11.898700 101.104353 
4.969800 -11.599800 101.074903 
0.497400 -11.537400 101.103703 
0.686300 -10.626300 101.633149 
-1.961500 -11.018500 100.049252 
8.126300 -10.126300 100.583148 
3.692500 -11.092500 102.666250 
6.195400 -11.235400 102.677700 
6.806500 -13.476500 102.123254 
5.796200 -12.036200 102.148104 
7.812300 -13.262300 101.596149 
7.333800 -11.483800 102.121904 
4.534400 -13.864400 102.132204 
0.311100 -12.631100 101.100553 
-2.320100 -13.109900 101.094953 
-0.060000 -12.310000 102.650000 
7.110100 -12.570100 103.695051 
-13.817700 -9.012300 99.521148 
-11.398700 -9.541300 101.090653 
-13.059600 -9.500400 97.980200 
-1.984100 -10.455900 101.612949 
-10.137700 -10.152300 97.456153 
-10.090500 -11.269500 97.479753 
-7.062300 -11.657700 98.473847 
-10.540700 -9.509300 99.529648 
-8.871800 -10.628200 100.589098 
-9.435300 -11.774700 99.022351 
-12.858100 -11.651900 99.020951 
-10.158400 -11.291600 100.555798 
-14.481000 -12.549000 97.469503 
-9.823700 -10.536300 102.638150 
-4.578100 -11.361900 101.630949 
-4.400300 -11.479700 100.034852 
-13.624600 -10.285400 97.952700 
-12.417300 -11.102700 102.671350 
-12.059100 -11.050900 101.110453 
-13.340600 -10.629400 101.079703 
-12.703600 -11.966400 100.583198 
-13.709000 -11.591000 101.070503 
-13.886400 -11.173600 102.646800 
-14.580800 -10.569200 102.654600 
-16.395599 -13.674400 96.957199 
-15.273900 -12.876100 94.853047 
-16.463399 -12.186600 95.398302 
-16.845900 -12.194100 97.467053 
-16.270699 -10.559300 94.849647 
-14.895900 -7.924100 95.357052 
-15.952600 -11.837400 95.888698 
8.999400 -8.169400 88.624699 
-1.951400 -7.968600 80.839296 
1.519900 -13.839900 99.029951 
-3.163900 -13.006100 99.523048 
-2.444000 -8.756000 87.058002 
-2.377500 -11.922500 96.416252 
-5.825300 -11.704700 98.497347 
-4.285300 -11.234700 98.502347 
-3.072700 -9.337300 92.783653 
-2.852700 -9.197300 91.228648 
-10.256200 -13.323800 100.046902 
-7.767800 -12.682200 99.541098 
3.179500 -5.899500 75.594749 
3.816800 -5.836800 74.068402 
5.268300 -4.898300 74.594148 
5.013300 -5.403300 77.176647 
4.839400 -5.449400 76.149704 
-0.478400 -6.161600 78.725802 
-3.160100 -6.699900 78.209948 
4.905800 -4.335800 74.037902 
5.658800 -5.768800 73.034401 
-18.743100 -12.386900 94.838447 
-5.969000 -5.351000 71.455503 
-14.914300 -4.505700 78.207848 
-12.596700 3.606700 72.476647 
-16.529799 -2.190200 87.570098 
-14.929800 -2.460200 80.835096 
-16.021900 -2.008100 85.479047 
-16.434299 -4.845700 85.492847 
-17.649101 -4.930900 92.780453 
-17.411000 -5.029000 91.759502 
-15.047400 -7.062600 89.661300 
-19.743401 -10.336600 92.773303 
-19.632000 -11.398000 92.253999 
-20.240601 -10.509400 94.334701 
-8.613500 -8.606500 90.718251 
-10.367600 -8.342400 93.286200 
-14.576100 -12.593900 91.751952 
-15.813600 -11.806400 91.203198 
-16.881300 -10.578700 93.819346 
-5.934000 -8.366000 88.118003 
-3.775600 -6.304400 76.112204 
-3.915400 -5.844600 74.572298 
-2.848200 -4.781800 73.530898 
1.946800 -5.566800 71.978400 
3.504500 -4.074500 74.042252 
3.815800 -4.355800 72.992901 
4.350600 -5.480600 71.435303 
4.330000 -5.250000 72.494997 
3.807500 -5.237500 70.398752 
2.250300 -5.580300 73.030151 
-1.741100 -4.118900 73.514448 
-0.621600 -3.908400 71.474203 
-1.640700 -5.509300 77.179647 
-1.134300 -4.735700 76.117854 
0.886300 -4.846300 77.178147 
0.960500 -4.980500 75.595249 
19.434700 -15.774700 122.917349 
16.403399 -15.823400 113.566698 
14.380000 -13.650000 106.839996 
12.812500 -13.552500 106.791246 
12.593000 -14.553000 106.286500 
14.959600 -14.949600 109.944799 
14.348700 -12.868700 108.369352 
14.253200 -14.333200 110.456603 
15.051900 -15.101900 112.025951 
19.063800 -12.133800 118.796903 
17.765000 -16.035001 115.677500 
-1.132400 -12.367600 103.168797 
-7.281300 -14.248700 101.594349 
-12.936200 -13.733800 102.126904 
-19.031599 -1.878400 99.009201 
-18.427901 2.807900 98.486047 
5.566800 -11.906800 104.233398 
8.440000 -10.640000 104.229998 
18.891900 1.818100 107.355951 
-20.619101 -12.610900 92.240449 
2.507200 -0.277200 49.103599 
18.247300 3.062700 102.113654 
19.661600 11.418400 109.920799 
17.886900 4.673100 102.113454 
-19.567501 14.097500 89.146254 
-8.484300 9.104300 61.052852 
-10.928400 9.608400 64.670801 
9.342000 5.998000 62.605999 
12.389100 10.620900 74.074552 
23.612199 17.337800 114.111103 
20.930699 7.409300 110.460353 
19.408001 3.942000 107.339001 
21.632499 12.437500 109.396252 
19.459799 11.880200 107.834897 
21.044199 9.885800 109.952099 
19.995600 12.884400 111.507797 
20.822699 10.117300 112.011351 
21.259400 9.530600 112.034701 
20.094301 15.515700 110.992150 
22.501500 15.058500 110.950750 
21.912701 12.347300 111.506347 
19.004100 15.795900 105.242049 
19.710200 15.499800 108.905098 
21.259000 16.191000 110.434503 
17.803699 13.776300 102.156854 
15.177400 9.722600 87.078702 
21.939200 -18.989199 138.529598 
23.911700 -13.801700 146.315851 
9.310900 -2.930900 62.110449 
23.127999 13.542000 113.034002 
22.026599 15.673400 113.068302 
22.630500 10.409500 114.110253 
22.306500 13.003500 113.578248 
21.877799 12.492200 113.558898 
22.036099 10.133900 114.108053 
9.660500 -9.490500 100.570248 
13.234500 -11.634500 105.267249 
15.683900 -11.453900 110.986950 
15.229400 -10.339400 108.919698 
16.328500 -11.218500 110.444253 
11.132700 -14.082700 102.661350 
14.446700 -13.526700 106.293350 
10.165900 -10.055900 104.192948 
11.387200 -9.647200 103.683601 
12.260800 -13.720800 104.740402 
11.562800 -13.462800 106.811396 
20.435100 -3.325100 110.967550 
21.217500 1.302500 117.223748 
20.850901 2.799100 115.150454 
22.218400 5.011600 117.219198 
22.275201 5.924800 114.597599 
23.548200 4.351800 118.784103 
23.407600 2.952400 119.283800 
20.810401 -3.450400 115.130204 
22.672000 1.668000 119.800996 
23.458500 0.581500 119.309250 
22.526901 -4.516900 119.833446 
26.467201 -2.627200 129.168597 
25.050799 -2.240800 126.560398 
-18.884899 -12.705100 96.397552 
-20.838900 -11.701100 96.910549 
-20.707300 -10.302700 94.346351 
-21.245200 12.155200 100.077402 
-2.979900 -0.100100 53.750049 
-1.436100 -1.653900 54.831950 
-1.004900 -1.265100 54.287550 
-4.738300 -2.201700 54.835850 
-2.840700 -0.669300 54.839650 
-2.847700 3.237700 55.851151 
-3.452400 4.162400 56.373802 
-1.977500 1.127500 54.316250 
-3.410300 2.150300 55.324851 
-9.306400 1.176400 60.556801 
-9.533000 1.113000 61.563498 
-9.235700 1.735700 61.552148 
-5.845100 -0.054900 57.392449 
-6.742400 -0.627600 58.988800 
-6.203500 -2.826500 56.913248 
-6.574700 -0.845300 58.472650 
-4.095700 0.715700 55.857151 
-3.577500 -1.022500 55.876251 
-1.324400 4.944400 58.997800 
1.937000 -0.987000 50.133500 
0.420500 1.349500 53.775249 
2.204900 0.255100 50.642450 
8.248700 -1.888700 59.484350 
6.950800 0.389200 57.935399 
-0.660600 -0.699400 53.269699 
-1.436900 0.696900 53.776549 
-2.051700 1.461700 55.334151 
-1.472900 -0.287100 54.813550 
-0.004700 0.984700 54.317650 
-0.319900 -2.520100 57.950049 
3.078400 -1.708400 53.254199 
5.237000 3.113000 55.848501 
-1.456500 2.376500 55.346751 
5.973600 2.056400 55.336801 
3.632100 -0.452100 52.756048 
3.661100 0.328900 51.675551 
5.372600 3.557400 57.401299 
-1.218900 5.388900 56.375552 
-16.900299 0.640300 92.754853 
-8.766600 -8.563400 94.831697 
-17.369600 11.989600 98.505197 
-14.430800 11.680800 83.424602 
-18.450301 11.330300 98.474847 
-18.156600 12.666600 92.276699 
-19.437900 12.877900 95.391052 
-19.977801 5.607800 97.986100 
7.468500 -4.268500 67.279250 
7.634000 -4.934000 68.831997 
6.310500 -3.440500 68.330251 
-17.804000 13.144000 97.973000 
-19.238299 12.828300 98.505847 
-16.842600 13.172600 89.123704 
-17.875700 9.275700 97.457153 
-17.528501 10.848500 95.360752 
-10.420200 1.940200 61.599898 
-5.235100 4.685100 57.397449 
-10.689100 1.659100 62.080449 
-9.898600 0.778600 63.675700 
-6.698200 -4.701800 70.430902 
-10.887500 -1.062500 63.111250 
0.190800 -3.010800 71.970400 
-0.084200 -3.165800 74.037902 
-8.963700 6.073700 65.758152 
-9.851000 6.131000 66.774503 
-2.943200 -6.006800 79.243399 
-2.575900 -4.564100 76.122054 
-10.995400 5.735400 71.472303 
7.643600 5.836400 61.051802 
6.448300 4.791700 58.964150 
-1.015200 6.165200 57.427399 
11.096800 9.553200 71.478403 
9.057300 6.952700 65.208648 
-8.771400 3.781400 62.074299 
-3.283700 7.473700 57.433149 
-2.533300 6.363300 57.943349 
-3.161800 8.221800 57.929099 
-6.149500 6.839500 58.980250 
-7.230500 8.290500 61.049752 
-7.556200 4.366200 60.541901 
-9.994300 4.304300 64.187847 
-8.963900 4.083900 63.148050 
-7.231200 8.501200 62.094399 
-4.680400 9.130400 60.029801 
-8.176900 6.906900 62.606549 
-6.618500 9.308500 63.665750 
-6.622300 8.532300 63.663850 
7.832100 4.517900 61.581048 
9.177400 6.492600 64.188697 
11.363700 8.996300 73.526848 
-14.315900 8.395900 81.857047 
9.925000 -8.095000 91.732502 
7.637400 -8.527400 92.273699 
-16.025100 -1.074900 87.597448 
13.503600 11.316400 80.826796 
14.441300 4.428700 82.915648 
3.068000 -5.418000 79.238999 
5.164300 -4.084300 73.037151 
-19.133900 10.793900 100.578048 
-19.882701 9.742700 100.553648 
-21.877999 8.168000 101.086003 
-18.307699 12.037700 100.076152 
-18.956600 8.146600 99.531698 
-20.833301 8.623300 99.538348 
-20.579900 5.269900 98.515047 
-21.368699 7.318700 97.965650 
-15.711300 -13.398700 102.149354 
-18.242199 -14.137800 99.543898 
-19.128900 -13.381100 99.530548 
-18.751200 -13.208800 101.079403 
-17.369601 -13.450400 100.595198 
-15.470100 -10.289900 99.554948 
-17.622000 -11.998000 97.979000 
-18.969501 -12.970500 97.985250 
-20.297800 -9.522200 98.486097 
-20.041400 -8.988600 97.464303 
-22.337700 6.107700 101.606149 
-21.421200 4.661200 98.519397 
-19.942101 -5.897900 94.318951 
-20.196300 -2.363700 97.471853 
-20.205400 0.605400 97.467303 
-20.026100 1.306100 97.471953 
-19.501500 0.671500 96.914249 
-18.046900 -9.563100 98.506547 
-20.152400 -9.007600 96.918799 
-19.113601 -8.916400 98.483197 
-19.917400 -5.452600 98.991301 
-19.058700 -7.431300 97.455653 
-20.600200 -5.409800 95.879898 
-20.391500 -4.828500 97.459253 
-18.158801 0.618800 95.375602 
-18.085800 -0.914200 94.352101 
-21.077800 1.227800 97.451103 
-20.904700 3.534700 95.892648 
-20.725500 -0.774500 94.337251 
1.656800 -12.046800 99.528398 
1.375800 -10.685800 101.107903 
-2.204500 -9.755500 96.942749 
2.351300 -13.141300 100.560648 
4.268100 -13.268100 100.564048 
4.446000 -11.966000 101.073003 
1.185800 -12.065800 102.652900 
3.278700 -13.098700 102.124354 
2.657400 -11.867400 102.678700 
-0.041200 -11.088800 101.619399 
4.417300 -12.107300 102.673650 
7.918300 -9.928300 102.149154 
5.226100 -13.316100 101.623049 
7.224300 -13.044300 102.157154 
7.005200 -14.205200 101.632599 
-0.241100 -13.088900 101.084453 
-1.299100 -11.680900 101.605449 
-0.725400 -11.414600 101.107303 
-3.895800 -12.704200 101.622099 
-2.657700 -12.092300 101.626149 
-1.259700 -13.020300 102.145154 
5.117700 -13.427700 103.683851 
6.028100 -12.468100 104.194048 
-9.005600 -11.644400 97.432203 
-7.580700 -10.549300 99.009651 
-8.126200 -9.903800 98.991901 
-9.141600 -11.488400 98.999201 
-9.957600 -9.722400 100.566198 
-6.761800 -12.628200 100.064102 
-10.849200 -11.060800 97.435403 
-10.337200 -11.122800 98.996401 
-15.430000 -13.560000 99.015001 
-13.858600 -13.471400 99.030701 
-11.126300 -12.393700 98.481847 
-5.201100 -10.968900 102.114454 
-4.884800 -10.385200 100.587598 
-7.142300 -10.377700 100.583848 
-9.404900 -10.375100 102.127554 
-2.794400 -12.145600 100.062802 
-3.641800 -11.558200 98.484097 
-4.366100 -10.783900 100.051952 
-16.248799 -12.571200 95.905598 
-15.558200 -9.601800 100.070902 
-12.069800 -11.720200 102.115104 
-12.968800 -11.831200 102.110604 
-14.535100 -11.014900 101.092453 
-13.630600 -11.569400 99.529698 
-16.839200 -13.770800 98.515397 
-15.121400 -13.008600 95.889298 
-16.586300 -7.463700 93.801846 
-16.328800 -11.351200 97.950600 
-14.892000 -11.678000 97.994000 
-1.479300 -7.400700 81.845347 
1.704500 -9.164500 92.257249 
-2.526900 -13.033100 97.476553 
0.609300 -13.289300 98.999651 
-5.638200 -12.681800 98.505897 
-2.951500 -9.328500 90.199247 
-8.721500 -12.178500 98.494247 
-10.965500 -12.024500 99.027251 
-9.812600 -12.037400 97.448703 
4.922200 -5.582200 75.621099 
3.014000 -6.524000 74.052002 
2.992300 -5.082300 76.651150 
3.315700 -5.645700 77.702851 
-0.489900 -6.620100 79.760053 
-2.971100 -6.778900 76.119454 
-0.741400 -7.228600 79.774303 
7.418000 -5.658000 71.979000 
4.855800 -5.685800 74.582898 
-15.413100 -6.296900 84.993450 
-13.719500 7.869500 77.700251 
-13.932100 5.432100 80.283950 
-14.582700 -7.297300 93.833646 
-16.340899 -0.519100 89.144554 
-16.430900 -7.379100 92.264549 
-16.089500 -7.260500 92.760253 
-20.344100 -10.375900 92.792953 
-15.898200 -12.141800 92.775903 
-17.373301 -10.936700 95.353352 
-3.282800 -6.947200 76.158604 
-4.096200 -5.783800 73.541898 
-4.712700 -4.817300 73.548648 
-5.949000 -5.221000 73.025501 
-3.369100 -5.470900 76.115454 
-5.298600 -6.371400 75.600699 
-2.107300 -4.812700 75.101353 
-2.906500 -5.103500 74.561748 
-1.200300 -4.249700 72.479847 
3.349200 -4.039200 73.014601 
3.784100 -5.264100 71.457053 
3.755100 -5.135100 73.027551 
1.703800 -4.023800 73.006901 
1.724800 -4.194800 71.992400 
0.728000 -4.668000 76.129004 
-1.398100 -6.191900 79.785953 
1.302400 -4.142400 75.636199 
0.616200 -5.796200 76.138104 
1.033800 -5.393800 76.666900 
0.773000 -5.513000 78.736502 
2.573000 -4.103000 75.111503 
2.523700 -4.603700 75.086853 
3.848400 -4.078400 75.099203 
0.352600 -5.902600 75.101303 
14.779300 -13.719300 108.399652 
14.169000 -13.929000 108.374502 
14.034200 -12.924200 108.887098 
13.809100 -14.669100 109.939549 
15.374200 -15.574200 111.992101 
14.246600 -14.726600 110.453303 
14.163200 -15.183200 109.926599 
17.995099 -14.645100 116.172547 
18.727100 -12.777100 116.718551 
5.203500 -14.453500 102.116754 
-7.577200 -12.942800 101.621399 
-12.417200 -14.212800 102.121404 
-10.189200 -13.710800 101.630399 
-12.684800 -12.595200 100.592598 
-18.994600 3.034600 100.077702 
17.938500 1.271500 102.139254 
18.172200 1.587800 103.676101 
20.542300 8.107700 112.536148 
-8.325600 8.975600 60.522201 
12.273400 11.316600 74.556698 
11.399500 10.250500 69.889748 
20.038900 15.501100 106.809446 
19.741400 12.578600 109.395702 
21.220699 13.649300 107.315351 
20.607401 11.942600 110.958700 
21.035200 8.784800 110.982600 
20.700001 9.330000 110.440003 
21.564700 11.035300 113.597348 
21.831000 16.478999 112.030501 
22.718699 15.041300 110.959350 
22.218999 13.341000 110.999500 
21.832900 16.197100 110.431453 
21.624699 13.385300 109.392352 
20.001500 14.638500 109.430752 
20.050601 16.059400 108.890298 
13.800800 8.389200 81.310401 
8.918300 -3.068300 61.594148 
9.239100 -2.609100 62.609549 
24.849800 4.640200 121.359902 
23.048699 12.901300 113.559348 
11.362700 -9.082700 100.551348 
12.453900 -9.783900 105.236949 
8.091000 -10.551000 102.150504 
13.143600 -13.903600 106.286800 
9.834300 -14.154300 108.357152 
11.236900 -14.266900 108.898448 
24.045800 2.204200 119.297900 
21.579900 -1.089900 117.204948 
24.209099 0.660900 121.354552 
-19.920200 -12.139800 96.954899 
-19.705199 -12.014800 96.402402 
-21.253200 -11.796800 96.958399 
-20.864600 -10.305400 94.347701 
-22.000500 12.300500 101.599749 
-1.911700 -1.348300 55.359151 
-2.414800 -1.665200 55.347601 
-1.634800 -0.775200 53.242599 
-0.924200 -0.765800 52.752898 
-4.062100 6.662100 56.903948 
-2.764500 4.794500 55.312751 
-9.752800 -0.927200 60.543601 
-9.007200 1.597200 61.056402 
-4.900900 -3.109100 57.959549 
-3.373400 0.763400 55.833301 
-0.303400 1.973400 53.788299 
6.939600 -0.359600 57.439799 
-0.322800 2.972800 54.818600 
2.601000 -0.291000 50.120500 
5.754300 1.385700 55.862151 
-1.026300 3.766300 55.321851 
8.488900 -3.988900 63.154450 
-8.255500 -9.234500 97.472253 
-8.875700 -9.104300 96.412152 
21.135701 13.684300 106.807846 
-18.171500 12.571500 97.959250 
-16.929101 13.089100 94.845447 
-18.142899 12.772900 93.833546 
-17.440600 12.530600 94.834697 
7.168700 -4.628700 69.389352 
-19.107301 11.067300 98.486347 
-17.802200 11.132200 96.923899 
-10.431200 -0.448800 61.079402 
-10.630100 0.010100 64.709951 
-2.191800 6.771800 57.914099 
-9.452200 4.712200 64.178897 
-10.022000 3.532000 64.679001 
-8.746800 8.916800 62.591599 
-7.065500 8.015500 62.072249 
-8.323400 7.803400 64.193297 
-8.401500 5.931500 64.154247 
-8.958500 7.108500 64.150747 
-7.750500 6.760500 63.154750 
6.902000 -4.952000 73.026001 
9.089200 5.610800 64.199597 
2.031200 -9.061200 93.800596 
0.774000 -9.234000 95.372002 
6.025700 -8.835700 94.357851 
-18.693999 10.284000 99.008001 
-20.413700 5.623700 98.513147 
-21.500199 7.400200 97.984900 
-20.939700 -9.680300 98.505147 
-20.005100 -12.404900 99.522448 
-15.512100 -13.887900 100.568948 
-18.016201 -13.173800 99.001901 
-19.614299 -8.925700 98.487847 
-20.485701 -7.234300 93.302150 
-20.235900 0.045900 97.452053 
-20.594000 -6.066000 98.998001 
-19.252000 -7.988000 97.439003 
-20.366200 -5.503800 94.351901 
-20.729201 -8.130800 95.900398 
-20.545800 -7.314200 94.342101 
-19.504900 -7.225100 96.912549 
-17.878101 0.438100 95.350952 
-21.312100 3.762100 98.488947 
3.354600 -12.344600 99.007301 
4.605200 -13.745200 100.557598 
1.130300 -12.400300 99.520148 
2.467000 -12.477000 102.673500 
2.390500 -11.400500 102.635250 
-4.104200 -10.285800 98.507897 
5.943600 -13.203600 101.626799 
-0.886200 -12.363800 102.676900 
-9.807600 -10.262400 97.451203 
-4.884100 -10.545900 100.052952 
-6.285300 -10.394700 100.042352 
-5.408200 -11.391800 100.050902 
-7.472800 -12.127200 100.053602 
-13.600500 -13.159500 100.569748 
-14.267400 -12.442600 98.996301 
-11.429100 -12.900900 98.500447 
-15.557100 -13.072900 97.436453 
-11.864500 -12.355500 97.432753 
-7.649700 -10.000300 102.125154 
-3.450800 -12.419200 100.079602 
-12.173600 -12.366400 99.018201 
-15.638900 -12.681100 98.995551 
-14.039000 -11.321000 97.995500 
-5.541200 -9.768800 96.949399 
-9.023300 -12.576700 98.513347 
-10.629400 -11.940600 97.460303 
-0.440800 -6.669200 80.829596 
-2.398300 -5.061700 76.140854 
4.359800 -4.659800 73.014901 
-17.483601 -4.606400 92.783203 
-3.060700 -6.689300 75.079653 
-3.945400 -6.184600 74.557298 
-5.946100 -5.913900 75.601949 
-5.400000 -6.040000 77.164997 
3.948800 -4.358800 72.489397 
-1.300700 -4.529300 74.594648 
-1.090000 -4.620000 75.095003 
-0.904500 -4.375500 73.552748 
1.464500 -5.244500 74.042252 
-1.689200 -5.650800 78.205398 
-3.034000 -6.826000 79.267999 
-0.047900 -5.592100 77.176047 
3.118000 -5.058000 75.633999 
14.808100 -12.418100 108.899048 
16.335901 -15.715900 111.507947 
-1.860800 -14.149200 102.634600 
-11.396100 -13.473900 101.091953 
-9.172300 -11.177700 102.153854 
-12.565700 -13.394300 100.567148 
-19.577500 1.877500 100.046252 
8.466200 -9.386200 100.578098 
19.573299 12.556700 109.406652 
21.416699 14.473300 113.053352 
22.896101 13.143900 113.578048 
11.592400 -9.272400 100.581198 
24.156601 5.503400 118.783303 
-19.708999 -12.051000 94.845497 
-21.051500 -9.698500 97.464253 
-21.918201 12.088200 102.130904 
-2.026100 -1.613900 55.831951 
-4.465300 6.075300 57.437349 
-2.882900 5.062900 55.348551 
-3.651000 -2.789000 58.954500 
-5.789400 -0.200600 57.915299 
-0.009000 0.189000 52.235502 
-18.146099 12.766100 96.436952 
-17.815799 13.105800 93.837096 
-5.299400 -5.510600 76.135304 
-4.335300 -4.734700 74.557348 
-6.351800 7.451800 61.064102 
-6.890500 8.200500 61.059752 
-8.940100 7.870100 64.714951 
9.550500 3.949500 63.675250 
8.953900 4.346100 62.631949 
-18.979699 9.259700 99.035151 
-16.512000 -12.938000 99.548998 
-20.079299 -8.850700 98.510347 
5.940500 -12.870500 102.130254 
0.809800 -13.409800 102.639900 
1.534600 -13.684600 100.587298 
9.148800 -14.488800 106.804396 
-9.647300 -11.772700 100.551348 
-8.129600 -12.640400 100.070202 
-13.581900 -11.868100 97.974050 
-3.431600 -12.718400 99.559198 
-16.493100 -12.906900 97.953450 
6.116500 -8.966500 93.318250 
-7.767700 -12.922300 99.541148 
-3.544400 -13.235600 101.092803 
-5.058200 -11.761800 96.940899 
1.882300 -5.152300 73.036151 
1.651600 -4.141600 74.075802 
1.381800 -3.981800 75.095903 
-0.766000 -6.334000 80.806996 
2.533300 -5.673300 74.576648 
-20.022500 1.102500 99.023751 
-20.421800 -0.278200 98.994101 
20.742200 9.897800 108.386102 
20.921700 15.538300 106.790846 
10.002500 -14.412500 108.351252 
-20.510999 -12.299000 94.854497 
-3.427100 4.807100 55.851451 
-4.795400 8.915400 60.512301 
-5.921800 8.331800 62.104099 
-17.686700 -12.443300 98.996651 
6.241100 -12.721100 103.705551 
1.394800 -13.844800 102.667400 
-4.408600 -13.111400 101.095703 
-4.308600 -13.251400 101.590699 
-4.643600 -12.316400 97.958200 
1.869400 -4.909400 74.054702 
20.499800 9.810200 108.359902 
19.769800 9.660200 108.369902 
20.653601 9.906400 109.941799 
