383  
27.850301 -17.970299 134.875148 
-30.421501 -21.008499 144.254249 
0.114400 -1.784400 50.132200 
-18.264400 12.484400 101.627799 
17.396600 -1.906600 99.023301 
21.063600 -19.043600 132.826796 
29.463299 -5.123300 142.671651 
28.427000 -18.197000 149.973500 
20.364199 6.405800 114.632099 
14.811500 -9.141500 105.235749 
19.542701 -11.952700 123.446353 
-15.004000 -8.116000 98.497997 
-10.693900 -4.016100 58.998050 
-24.134400 11.784400 107.332801 
-23.475999 8.946000 104.191998 
-4.457700 9.027700 56.901148 
16.912700 15.277300 98.476347 
12.924100 12.075900 77.677051 
-21.715099 6.515100 96.397452 
10.053100 -2.053100 61.576548 
8.974900 -5.644900 68.852447 
8.249500 -14.839500 101.639749 
29.422501 -20.732500 142.186247 
27.104600 -21.824600 149.962300 
31.013999 -2.164000 149.977000 
27.157400 -17.317400 149.988700 
30.981799 -14.521800 149.960900 
31.027899 -19.127900 149.983950 
20.507200 17.852800 112.518598 
21.309300 -12.729300 134.384644 
19.385099 -11.085100 123.957550 
22.975500 -13.585500 143.232755 
14.246800 -7.776800 92.238399 
15.299200 -12.349200 106.839596 
-20.686101 6.686100 104.721952 
10.410300 -14.950300 109.945149 
-0.572800 -12.837200 104.743602 
9.430900 -11.520900 105.765453 
22.088301 -9.988300 120.869147 
18.696699 -9.706700 114.113353 
20.051600 -15.941601 125.510798 
17.014300 -12.824300 114.637149 
25.541301 -12.251300 134.885648 
22.033800 -2.333800 121.891898 
-18.289400 -7.380600 96.930299 
-21.954500 4.094500 101.622749 
-19.513600 4.613600 100.078202 
-20.256000 10.436000 98.992001 
-13.608300 -11.011700 97.960850 
-2.165500 -7.894500 80.802246 
-2.200600 2.110600 56.369702 
14.424000 10.726000 88.107003 
-17.650600 6.960600 97.964700 
-16.106900 1.746900 89.671550 
3.865300 -3.635300 75.612649 
3.290200 -2.310200 69.370102 
-16.555599 8.445600 91.712202 
-7.549400 1.549400 62.095299 
7.074300 -4.804300 73.542148 
10.674700 -9.114700 102.117354 
6.940000 -9.100000 95.914998 
-20.917200 -9.272800 92.751403 
-4.043800 -2.546200 51.163101 
-15.706300 -13.303700 92.791853 
-22.591499 15.911500 100.584248 
-15.927600 14.587600 91.711202 
3.550800 8.709200 54.815400 
-19.986700 12.906700 96.921649 
-11.174600 7.344600 64.152697 
5.729900 -1.889900 53.249949 
7.298300 1.991700 57.419149 
17.288300 -16.248301 111.504147 
11.139900 -5.079900 66.779953 
9.299900 -4.059900 60.559951 
23.049200 11.560800 111.494597 
24.139500 4.980500 116.704751 
29.687400 -21.817400 149.958700 
22.317100 -19.487100 141.113554 
23.782200 -13.892200 146.856105 
28.643601 -7.063600 145.816796 
-19.830300 13.350300 103.164847 
19.028700 14.271300 109.414352 
28.074900 -4.714900 140.597449 
22.833101 4.646900 119.306550 
22.090100 5.439900 116.685051 
22.567500 9.082500 114.078753 
20.163701 14.096300 113.586848 
20.742100 -11.562100 131.231049 
21.981901 -17.111900 134.370944 
25.385999 -12.786000 140.117995 
24.287300 -11.777300 136.968650 
27.245601 -13.955600 143.737795 
27.890600 -16.050599 147.355294 
21.251200 -8.951200 115.150604 
12.877700 -11.097700 103.713851 
-18.707900 5.677900 101.101053 
12.688800 -9.448800 105.264399 
-11.035400 -9.444600 102.652300 
-14.368000 -10.892000 101.091003 
-1.861500 -14.028500 102.634250 
-13.923300 -12.566700 98.998351 
12.485200 -11.985200 105.252599 
11.048700 -13.378700 106.834346 
15.585200 -10.855200 108.912598 
16.027501 -12.237500 112.513748 
14.253200 -14.333200 110.456603 
16.070500 -14.640500 114.080253 
17.983100 -12.533100 114.631549 
6.535600 -13.215600 105.777803 
21.772400 1.057600 117.201198 
22.093599 -4.353600 119.821796 
12.941200 -11.261200 110.465603 
8.894700 -11.624700 107.357351 
19.696600 0.693400 108.898298 
21.726600 6.443400 112.543298 
18.646500 -13.406500 116.678251 
21.180000 -14.900000 129.675001 
24.322701 -5.942700 126.056352 
20.577200 -13.737200 125.553598 
23.806999 -11.367000 134.358494 
21.780000 -11.330000 131.770003 
23.553400 -3.403400 121.911698 
-18.976199 -4.463800 99.036901 
-18.976499 -2.053500 99.036751 
-20.277900 -7.612100 97.431053 
-20.563300 -1.986700 97.458353 
-21.594099 7.434100 103.177947 
-20.604900 6.144900 101.112553 
-19.292400 9.542400 100.588798 
-22.819500 11.419500 103.675251 
-21.773300 11.133300 102.113354 
-16.047000 -8.803000 98.486497 
-17.838200 -12.431800 97.955900 
-18.931901 -9.888100 98.489047 
-2.144400 1.054400 53.792799 
-4.323100 1.703100 55.838451 
1.430600 -2.270600 61.570298 
-2.026100 -1.613900 55.831951 
2.131900 -1.761900 54.815950 
-0.320800 -1.229200 52.214602 
6.954800 -1.014800 57.937399 
4.719600 1.400400 55.329801 
-6.380700 2.000700 58.964650 
1.736200 -5.286200 72.513097 
5.514400 -4.744400 71.962200 
3.504500 -4.074500 74.042252 
-0.940300 5.240300 57.939849 
0.447400 8.312600 61.558698 
7.754600 1.155400 61.057302 
7.038400 3.821600 60.524201 
-18.130300 12.180300 96.929849 
0.591600 -4.271600 79.750803 
-16.671001 -7.499000 95.374502 
-17.649101 -4.930900 92.780453 
-14.640000 -9.350000 96.914999 
-9.162100 -7.997900 88.098953 
-15.918000 -6.132000 86.515998 
-19.701600 12.661600 100.069202 
-20.835200 13.045200 96.912399 
-18.631699 13.451700 92.279149 
-18.708099 7.788100 96.405952 
-7.977300 3.337300 60.541351 
-10.023200 0.453200 62.598399 
-7.388900 -3.921100 68.870547 
-3.846100 -3.533900 69.391952 
0.788000 -3.358000 76.674000 
-2.012200 -3.767800 75.083903 
-7.760200 6.150200 62.099899 
-9.870600 7.370600 66.764703 
-11.900100 5.990100 72.514947 
3.315700 -5.645700 77.702851 
-0.920200 -10.459800 101.614899 
-1.343500 -7.016500 82.893248 
6.011700 -11.191700 100.565848 
7.105100 -12.185100 103.692551 
-10.273400 -10.216600 99.028301 
-11.712200 -9.327800 96.408902 
-8.960200 -11.809800 97.454903 
3.113900 -12.953900 100.591948 
3.243300 -10.013300 101.081653 
-20.770601 -11.609400 92.244699 
-19.028101 -12.051900 90.675951 
-20.208101 13.128100 90.710951 
-9.834500 10.214500 64.157747 
4.486300 2.443700 51.688151 
9.673400 0.846600 60.536701 
9.712600 8.327400 65.196298 
13.512100 -4.832100 74.061052 
12.061000 -4.051000 66.245499 
22.982500 17.437500 112.026251 
23.673800 14.956200 114.606899 
20.499800 9.810200 108.359902 
21.161500 11.518500 111.515747 
22.374501 15.865500 108.362252 
24.998800 -17.598800 145.279407 
26.518900 -9.998900 142.679451 
27.565800 -12.355800 145.307907 
24.669799 -12.679800 143.214905 
23.095200 -1.885200 121.892598 
24.370300 1.799700 121.900148 
21.694800 8.405200 114.607399 
24.475301 -14.645300 142.167647 
23.101000 -12.941000 136.965500 
23.011600 -11.721600 136.445796 
11.249500 -10.039500 102.144754 
11.478300 -9.638300 105.789153 
-12.076300 -11.093700 102.666850 
-10.158400 -11.291600 100.555798 
-14.430500 -13.689500 100.589748 
-11.942100 -12.587900 101.628949 
4.210800 -13.780800 102.150404 
11.627100 -10.087100 103.713551 
13.965000 -12.725000 108.367502 
13.494400 -10.934400 107.342201 
11.087800 -11.727800 107.343901 
17.523701 -10.653700 114.596849 
15.976999 -14.507000 112.003501 
22.654100 0.555900 117.237048 
21.217500 1.302500 117.223748 
10.458900 -12.888900 110.959450 
20.789201 -3.569200 115.119604 
12.419000 -14.169000 106.289500 
26.735001 -12.275000 134.897498 
23.753101 -11.153100 131.261549 
25.044499 -9.814500 134.397244 
-15.024300 -9.735700 103.167847 
-18.943901 -9.896100 101.638049 
-19.183900 -0.826100 97.473053 
-21.081500 4.011500 100.074252 
-21.030300 -7.229700 97.474853 
-20.216900 -5.253100 99.011551 
-20.370299 9.710300 100.569848 
-18.827300 4.747300 101.606349 
-17.820599 -13.119400 96.429702 
-19.615700 -11.634300 96.937149 
-17.897401 -11.592600 99.541298 
-4.505300 -1.134700 55.352351 
-3.076800 -0.133200 54.281600 
-1.984000 -0.956000 53.782999 
-1.971800 5.601800 55.859101 
4.345700 1.744300 56.382852 
4.337700 0.212300 53.788849 
-5.845100 -0.054900 57.392449 
-2.207900 2.327900 56.896048 
-4.803200 5.673200 58.448400 
-3.315500 7.895500 58.437250 
-4.058200 3.998200 57.390899 
-2.918700 2.268700 55.330651 
1.922000 -4.172000 72.991001 
8.036200 6.673800 64.173097 
9.331000 0.699000 62.070499 
15.177400 9.722600 87.078702 
-15.047600 -11.302400 96.401202 
-18.230100 -10.259900 96.959949 
-19.210901 -7.459100 95.914548 
-20.057501 -6.162500 95.906248 
-14.785000 9.135000 81.832497 
-6.880700 -4.639300 67.304650 
0.504400 -5.664400 76.667200 
-9.644500 3.944500 63.637750 
-5.252100 8.492100 60.543951 
-8.323400 7.803400 64.193297 
-7.812700 5.902700 64.168647 
12.889700 -9.189700 101.594849 
-8.747400 -8.232600 93.291300 
-8.437700 -9.452300 99.006151 
4.299700 -11.999700 101.089853 
-13.059600 -9.500400 97.980200 
-4.751400 -11.228600 101.629299 
-5.702600 -11.687400 100.078702 
-0.019300 -11.130700 99.550348 
-1.125500 -12.214500 101.077253 
1.704500 -9.164500 92.257249 
-8.743600 -12.276400 95.388202 
-6.535000 -12.745000 98.482497 
-0.395100 -12.694900 102.657450 
8.012100 -6.662100 76.156054 
5.773300 -7.943300 83.946649 
-13.410600 -8.179400 97.974700 
2.629100 -10.759100 104.719552 
17.136201 12.023800 100.573098 
18.969300 1.950700 106.829646 
18.233000 12.227000 105.786503 
19.635699 9.214300 108.397852 
-19.567501 14.097500 89.146254 
-10.928400 9.608400 64.670801 
4.128600 -1.358600 51.189301 
23.612199 17.337800 114.111103 
22.350301 12.439700 113.035152 
20.050601 16.059400 108.890298 
25.622900 -14.602900 141.656443 
13.433900 -12.663900 105.271949 
14.446700 -13.526700 106.293350 
-12.458200 -10.991800 104.215898 
-7.977000 -12.133000 102.136504 
-10.337200 -11.122800 98.996401 
8.685300 -12.285300 103.677651 
11.915700 -12.805700 110.432853 
15.323500 -12.373500 108.876748 
21.036700 2.813300 115.143354 
20.474001 -10.874000 126.566998 
-15.678100 -9.831900 101.605949 
-18.537900 -9.082100 100.051052 
-19.415301 0.275300 95.892348 
-20.074500 -1.855500 98.997751 
-20.657700 -11.132300 96.921149 
-16.127301 -11.362700 102.676350 
-4.404800 -1.805200 55.352601 
3.603800 0.256200 52.236902 
-1.456500 2.376500 55.346751 
-6.989300 -0.650700 59.515350 
-3.508500 6.938500 57.420749 
13.405600 2.894400 79.752803 
5.013300 -5.403300 77.176647 
-16.463399 -12.186600 95.398302 
-17.237900 -8.492100 96.956049 
-15.187700 -11.322300 99.526148 
-19.380301 -9.519700 94.354851 
-17.254100 -10.525900 93.792946 
-10.367600 -8.342400 93.286200 
-18.943799 -7.526200 94.333101 
-18.886901 -5.823100 95.911548 
-18.345499 13.475500 90.702251 
0.806700 -5.676700 77.718351 
1.046900 -4.706900 77.708451 
-9.061500 5.131500 65.209248 
-11.407800 7.057800 72.511097 
-4.013600 -10.796400 100.058202 
3.416100 -12.676100 104.238048 
2.260000 -12.440000 102.655000 
7.753900 -12.673900 102.156954 
9.956900 -9.976900 102.113454 
7.505000 -11.235000 104.212498 
5.119000 -10.599000 102.669500 
-3.021400 -11.178600 103.199297 
-8.721000 -11.079000 99.034501 
-5.856500 -11.553500 98.481747 
3.042600 -10.732600 99.536298 
1.399600 -11.809600 101.119803 
-8.425600 8.965600 60.527201 
2.854500 -0.104500 50.117250 
20.102601 14.287400 110.996300 
20.071300 15.338700 106.825646 
25.300099 -13.550100 140.075045 
-14.544200 -10.735800 102.672900 
8.899800 -11.309800 103.694901 
8.373500 -13.593500 103.701751 
14.957000 -13.707000 108.393502 
-14.790800 -10.369200 100.579598 
-19.526100 -0.693900 99.016951 
-19.891100 1.501100 99.004451 
-20.159900 -11.180100 95.360052 
-19.838100 -11.101900 93.795946 
3.044600 0.755400 51.682301 
3.687800 1.442200 52.738898 
-6.885100 -3.294900 61.557448 
-6.215400 1.495400 59.492300 
-17.352500 -7.377500 94.313751 
-16.239999 -6.860000 91.224998 
-20.576800 0.046800 95.891598 
-18.031599 5.911600 96.409202 
-16.499700 13.289700 90.685151 
-9.316800 8.566800 63.131600 
-6.187100 -10.722900 98.486447 
3.329400 -10.959400 102.659700 
-9.227300 -10.502700 100.586348 
-5.203100 -11.776900 96.948449 
2.934500 -1.344500 50.157250 
21.912201 13.157800 111.506097 
-17.928601 0.158600 95.890698 
-17.785900 3.815900 96.932049 
-20.299200 3.889200 98.485397 
4.120400 0.749600 54.270200 
-17.981600 -6.818400 94.324201 
-19.942101 -5.897900 94.318951 
-18.396400 7.436400 94.846797 
-9.592500 7.612500 63.663750 
21.840700 14.839300 110.435353 
-20.119800 2.629800 96.935099 
21.831000 16.478999 112.030501 
20.249299 14.330700 108.894648 
21.416699 14.473300 113.053352 
21.707799 13.162200 109.433902 
