500
231.000000 182.000000 0.000351
14.000000 115.000000 -15.999829
71.000000 94.000000 31.999592
68.000000 54.000000 47.999560
207.000000 119.000000 31.999602
108.000000 241.000000 -31.999965
36.000000 131.000000 -31.999798
61.000000 79.000000 -16.000061
158.000000 29.000000 47.999573
171.000000 20.000000 32.000102
80.000000 21.000000 15.999613
208.000000 209.000000 -32.000094
72.000000 154.000000 -0.000168
130.000000 195.000000 0.000267
159.000000 185.000000 0.000415
165.000000 172.000000 -15.999620
189.000000 138.000000 -16.000149
180.000000 211.000000 -48.000257
152.000000 182.000000 -32.000245
196.000000 216.000000 -0.000361
171.000000 63.000000 47.999650
8.000000 118.000000 -0.000377
167.000000 228.000000 0.000447
149.000000 64.000000 -0.000335
26.000000 166.000000 -31.999897
62.000000 132.000000 15.999507
129.000000 244.000000 -15.999563
223.000000 57.000000 15.999837
142.000000 25.000000 47.999532
119.000000 12.000000 15.999691
51.000000 213.000000 -32.000051
67.000000 59.000000 47.999558
244.000000 118.000000 16.000059
229.000000 186.000000 0.000022
151.000000 232.000000 0.000274
177.000000 166.000000 -0.000265
139.000000 71.000000 16.000400
201.000000 184.000000 16.000257
149.000000 26.000000 47.999937
144.000000 184.000000 -32.000347
212.000000 44.000000 16.000372
122.000000 243.000000 -32.000271
63.000000 226.000000 -15.999717
14.000000 92.000000 -0.000228
79.000000 191.000000 -48.000345
168.000000 174.000000 -31.999750
94.000000 239.000000 -15.999957
128.000000 196.000000 -0.000407
10.000000 151.000000 -0.000198
28.000000 63.000000 16.000490
50.000000 217.000000 -15.999698
147.000000 242.000000 -16.000115
11.000000 139.000000 -16.000482
208.000000 183.000000 16.000006
153.000000 28.000000 47.999911
63.000000 29.000000 15.999721
18.000000 173.000000 0.000064
80.000000 86.000000 31.999967
214.000000 131.000000 -31.999614
25.000000 164.000000 -32.000292
18.000000 81.000000 15.999688
174.000000 164.000000 -15.999519
112.000000 58.000000 48.000316
221.000000 196.000000 0.000020
87.000000 228.000000 0.000271
85.000000 82.000000 31.999577
136.000000 185.000000 -31.999946
139.000000 12.000000 15.999814
207.000000 136.000000 -31.999751
243.000000 127.000000 -16.000406
238.000000 83.000000 16.000043
236.000000 175.000000 0.000133
59.000000 39.000000 -0.000173
138.000000 58.000000 48.000435
63.000000 125.000000 -15.999958
148.000000 59.000000 47.999763
11.000000 116.000000 16.000295
12.000000 104.000000 16.000059
99.000000 195.000000 -47.999545
176.000000 168.000000 -32.000485
97.000000 186.000000 -0.000049
26.000000 69.000000 0.000408
67.000000 196.000000 -48.000408
197.000000 73.000000 -15.999752
180.000000 99.000000 15.999739
246.000000 145.000000 0.000341
54.000000 184.000000 15.999968
194.000000 78.000000 -15.999879
16.000000 144.000000 15.999772
100.000000 28.000000 47.999568
26.000000 108.000000 32.000427
188.000000 58.000000 48.000056
104.000000 23.000000 0.000019
186.000000 193.000000 -47.999712
242.000000 100.000000 16.000407
139.000000 12.000000 31.999602
229.000000 168.000000 -31.999564
96.000000 230.000000 -0.000241
144.000000 71.000000 31.999954
139.000000 184.000000 -16.000332
158.000000 226.000000 -48.000437
54.000000 143.000000 -31.999968
241.000000 163.000000 -0.000375
110.000000 59.000000 47.999725
88.000000 27.000000 0.000264
159.000000 25.000000 0.000204
228.000000 68.000000 0.000450
53.000000 114.000000 31.999861
76.000000 22.000000 16.000012
238.000000 172.000000 -16.000306
27.000000 174.000000 -32.000074
71.000000 64.000000 48.000089
58.000000 73.000000 -16.000054
226.000000 75.000000 31.999956
64.000000 224.000000 -32.000409
219.000000 79.000000 -16.000015
171.000000 219.000000 -48.000443
17.000000 149.000000 15.999620
85.000000 219.000000 -47.999948
139.000000 243.000000 -31.999927
64.000000 132.000000 -15.999923
133.000000 60.000000 0.000370
141.000000 13.000000 32.000016
144.000000 193.000000 0.000487
29.000000 77.000000 32.000389
186.000000 227.000000 -31.999584
51.000000 211.000000 -0.000140
100.000000 67.000000 -0.000192
153.000000 240.000000 -31.999932
184.000000 64.000000 48.000329
118.000000 233.000000 0.000081
37.000000 196.000000 -32.000450
196.000000 35.000000 32.000130
43.000000 51.000000 32.000190
97.000000 61.000000 47.999902
18.000000 174.000000 -15.999889
54.000000 112.000000 32.000389
244.000000 102.000000 -0.000141
26.000000 89.000000 31.999633
183.000000 101.000000 -0.000397
190.000000 155.000000 -32.000059
141.000000 61.000000 -0.000261
122.000000 69.000000 31.999905
159.000000 239.000000 -31.999703
180.000000 156.000000 -16.000295
122.000000 186.000000 -32.000017
159.000000 16.000000 31.999811
111.000000 62.000000 0.000081
30.000000 73.000000 32.000406
40.000000 131.000000 -32.000022
185.000000 50.000000 47.999556
46.000000 121.000000 32.000010
15.000000 91.000000 15.999817
139.000000 243.000000 -15.999875
194.000000 110.000000 -15.999682
200.000000 221.000000 -16.000194
146.000000 183.000000 -32.000064
106.000000 191.000000 0.000436
182.000000 156.000000 -0.000125
201.000000 71.000000 -16.000001
127.000000 59.000000 0.000459
141.000000 242.000000 -32.000493
171.000000 235.000000 -31.999615
61.000000 176.000000 15.999908
151.000000 14.000000 31.999740
121.000000 185.000000 -16.000410
9.000000 110.000000 -0.000308
36.000000 124.000000 31.999681
162.000000 16.000000 16.000300
80.000000 234.000000 -16.000029
15.000000 164.000000 -15.999884
208.000000 72.000000 -16.000103
67.000000 114.000000 15.999868
120.000000 60.000000 0.000358
153.000000 24.000000 -0.000315
167.000000 77.000000 0.000084
88.000000 178.000000 -0.000296
178.000000 88.000000 31.999579
75.000000 99.000000 16.000467
151.000000 241.000000 -31.999550
47.000000 183.000000 15.999840
151.000000 180.000000 -15.999625
112.000000 230.000000 -47.999580
152.000000 60.000000 47.999920
145.000000 183.000000 -15.999679
62.000000 123.000000 -16.000320
228.000000 142.000000 -32.000272
106.000000 232.000000 0.000122
89.000000 33.000000 48.000060
118.000000 231.000000 -48.000438
162.000000 239.000000 -15.999565
196.000000 220.000000 -31.999656
189.000000 117.000000 15.999870
73.000000 46.000000 48.000414
193.000000 37.000000 0.000188
187.000000 221.000000 0.000304
61.000000 140.000000 15.999972
115.000000 184.000000 -15.999817
153.000000 231.000000 -0.000374
46.000000 134.000000 -31.999890
68.000000 201.000000 -47.999923
217.000000 55.000000 -0.000048
200.000000 34.000000 16.000119
152.000000 195.000000 -48.000153
146.000000 72.000000 32.000142
105.000000 242.000000 -15.999819
158.000000 69.000000 0.000177
145.000000 72.000000 15.999652
103.000000 73.000000 32.000330
246.000000 112.000000 -0.000307
243.000000 128.000000 16.000331
46.000000 48.000000 0.000354
99.000000 15.000000 31.999993
96.000000 70.000000 0.000313
192.000000 129.000000 15.999724
171.000000 36.000000 48.000142
56.000000 41.000000 -0.000237
87.000000 236.000000 -32.000264
110.000000 242.000000 -32.000440
90.000000 26.000000 0.000233
219.000000 176.000000 16.000414
196.000000 32.000000 15.999647
225.000000 119.000000 31.999763
168.000000 81.000000 31.999513
103.000000 182.000000 -31.999641
28.000000 192.000000 -16.000020
225.000000 136.000000 -32.000475
62.000000 117.000000 -15.999916
58.000000 182.000000 16.000479
94.000000 71.000000 0.000277
210.000000 43.000000 16.000458
238.000000 86.000000 -0.000143
186.000000 28.000000 32.000422
208.000000 46.000000 32.000427
99.000000 60.000000 47.999544
85.000000 36.000000 47.999560
14.000000 140.000000 16.000064
174.000000 91.000000 16.000080
72.000000 33.000000 0.000351
230.000000 95.000000 31.999702
153.000000 15.000000 31.999736
180.000000 44.000000 48.000142
147.000000 13.000000 16.000173
168.000000 27.000000 0.000135
16.000000 168.000000 -16.000330
12.000000 98.000000 0.000077
84.000000 88.000000 15.999770
175.000000 162.000000 -15.999729
122.000000 12.000000 31.999587
194.000000 145.000000 16.000214
245.000000 104.000000 0.000096
38.000000 50.000000 16.000261
102.000000 231.000000 -0.000273
120.000000 70.000000 32.000247
103.000000 241.000000 -15.999562
24.000000 73.000000 0.000059
153.000000 241.000000 -16.000022
80.000000 29.000000 -0.000425
73.000000 223.000000 0.000246
25.000000 91.000000 -15.999716
110.000000 13.000000 31.999612
142.000000 230.000000 -47.999894
23.000000 185.000000 -16.000220
226.000000 180.000000 -31.999881
230.000000 105.000000 32.000364
80.000000 169.000000 -31.999656
219.000000 203.000000 -16.000266
69.000000 142.000000 -0.000292
33.000000 61.000000 0.000446
66.000000 119.000000 15.999737
29.000000 178.000000 -31.999839
122.000000 195.000000 0.000250
95.000000 79.000000 15.999537
53.000000 141.000000 -32.000021
228.000000 113.000000 31.999506
110.000000 196.000000 -48.000009
84.000000 167.000000 -16.000145
221.000000 123.000000 32.000377
192.000000 126.000000 -16.000016
163.000000 237.000000 -32.000336
107.000000 73.000000 15.999636
30.000000 59.000000 15.999555
143.000000 233.000000 -0.000014
76.000000 233.000000 -16.000291
140.000000 24.000000 48.000373
13.000000 122.000000 -16.000396
119.000000 243.000000 -15.999928
219.000000 52.000000 15.999516
39.000000 207.000000 -16.000205
11.000000 153.000000 0.000400
153.000000 227.000000 -47.999632
197.000000 182.000000 15.999689
96.000000 15.000000 16.000408
189.000000 27.000000 16.000370
85.000000 173.000000 -32.000317
137.000000 185.000000 -15.999535
186.000000 113.000000 0.000316
47.000000 72.000000 -16.000307
26.000000 147.000000 -31.999760
34.000000 59.000000 0.000272
184.000000 191.000000 -47.999729
135.000000 195.000000 0.000041
137.000000 22.000000 0.000252
137.000000 70.000000 16.000342
25.000000 164.000000 16.000081
241.000000 162.000000 -16.000253
25.000000 91.000000 31.999907
204.000000 44.000000 -0.000409
110.000000 184.000000 -32.000070
71.000000 191.000000 -47.999714
186.000000 141.000000 -0.000049
112.000000 22.000000 -0.000413
27.000000 187.000000 -0.000197
28.000000 139.000000 -31.999749
155.000000 76.000000 16.000041
31.000000 135.000000 -31.999815
99.000000 240.000000 -32.000440
218.000000 59.000000 32.000098
240.000000 164.000000 -16.000179
186.000000 62.000000 48.000381
193.000000 120.000000 -15.999543
87.000000 19.000000 32.000031
185.000000 148.000000 -0.000396
187.000000 139.000000 -0.000262
194.000000 177.000000 15.999986
13.000000 133.000000 15.999525
217.000000 131.000000 -32.000238
73.000000 229.000000 -31.999844
218.000000 196.000000 -31.999779
62.000000 218.000000 -0.000483
131.000000 12.000000 16.000284
68.000000 136.000000 -0.000446
14.000000 94.000000 16.000185
112.000000 197.000000 -48.000241
223.000000 198.000000 -15.999801
71.000000 161.000000 -32.000219
86.000000 18.000000 16.000351
100.000000 227.000000 -47.999777
17.000000 169.000000 -0.000308
118.000000 24.000000 47.999953
190.000000 100.000000 31.999686
72.000000 103.000000 0.000019
214.000000 124.000000 32.000046
221.000000 132.000000 -32.000248
81.000000 217.000000 -48.000242
54.000000 71.000000 -16.000327
14.000000 161.000000 -16.000004
64.000000 31.000000 31.999705
196.000000 223.000000 -16.000117
114.000000 194.000000 0.000448
239.000000 109.000000 -15.999611
242.000000 155.000000 -15.999961
62.000000 138.000000 15.999829
155.000000 188.000000 -0.000170
12.000000 131.000000 15.999532
230.000000 150.000000 -31.999836
12.000000 124.000000 -15.999937
244.000000 137.000000 -15.999895
38.000000 200.000000 0.000110
175.000000 93.000000 16.000389
40.000000 124.000000 32.000203
129.000000 11.000000 15.999840
39.000000 48.000000 16.000091
23.000000 70.000000 15.999560
89.000000 222.000000 -47.999557
73.000000 26.000000 31.999999
242.000000 94.000000 -0.000065
229.000000 148.000000 -32.000276
86.000000 237.000000 -15.999800
229.000000 190.000000 -15.999638
115.000000 71.000000 15.999835
180.000000 95.000000 -0.000262
247.000000 137.000000 0.000076
130.000000 69.000000 31.999978
38.000000 205.000000 -15.999885
95.000000 238.000000 -31.999829
155.000000 179.000000 -16.000164
25.000000 153.000000 -32.000133
17.000000 106.000000 -15.999715
178.000000 167.000000 -31.999967
209.000000 207.000000 -0.000472
68.000000 34.000000 0.000071
239.000000 146.000000 15.999682
81.000000 38.000000 47.999976
110.000000 23.000000 -0.000396
27.000000 81.000000 31.999842
136.000000 70.000000 32.000427
145.000000 232.000000 0.000270
140.000000 231.000000 -47.999598
148.000000 196.000000 -48.000069
16.000000 111.000000 -16.000408
108.000000 14.000000 31.999518
240.000000 91.000000 16.000149
230.000000 160.000000 -32.000275
64.000000 123.000000 15.999728
16.000000 87.000000 15.999844
8.000000 141.000000 0.000100
222.000000 194.000000 -0.000178
160.000000 61.000000 48.000409
174.000000 20.000000 15.999672
171.000000 174.000000 0.000162
84.000000 81.000000 -0.000264
151.000000 75.000000 15.999741
36.000000 79.000000 -16.000373
163.000000 18.000000 31.999651
68.000000 116.000000 -0.000288
185.000000 205.000000 -48.000148
193.000000 135.000000 16.000057
187.000000 119.000000 0.000122
19.000000 80.000000 0.000444
173.000000 64.000000 47.999899
237.000000 82.000000 0.000371
212.000000 211.000000 -15.999928
229.000000 87.000000 31.999870
69.000000 114.000000 0.000236
97.000000 194.000000 -48.000360
36.000000 176.000000 15.999577
55.000000 213.000000 -0.000157
189.000000 228.000000 -15.999840
110.000000 192.000000 -0.000275
174.000000 235.000000 -15.999655
73.000000 99.000000 -0.000327
28.000000 116.000000 31.999974
229.000000 107.000000 31.999858
153.000000 14.000000 15.999576
103.000000 14.000000 16.000290
130.000000 186.000000 -31.999906
162.000000 62.000000 48.000005
75.000000 160.000000 0.000127
13.000000 161.000000 -0.000169
183.000000 222.000000 -0.000352
107.000000 182.000000 -15.999640
105.000000 13.000000 15.999856
50.000000 38.000000 16.000248
175.000000 86.000000 0.000015
30.000000 196.000000 -15.999867
51.000000 42.000000 31.999990
241.000000 93.000000 15.999799
131.000000 243.000000 -16.000487
243.000000 102.000000 15.999527
30.000000 182.000000 -32.000239
120.000000 185.000000 -31.999833
66.000000 136.000000 -16.000264
200.000000 42.000000 -0.000351
25.000000 102.000000 32.000231
176.000000 87.000000 32.000019
160.000000 194.000000 -47.999614
96.000000 240.000000 -16.000345
230.000000 91.000000 -15.999643
243.000000 157.000000 -0.000306
243.000000 153.000000 -16.000310
217.000000 124.000000 32.000136
188.000000 197.000000 -47.999767
121.000000 70.000000 15.999790
242.000000 134.000000 16.000201
165.000000 229.000000 -0.000410
102.000000 24.000000 -0.000139
230.000000 164.000000 16.000285
182.000000 32.000000 0.000135
247.000000 114.000000 -0.000002
43.000000 204.000000 -32.000367
210.000000 212.000000 -15.999682
37.000000 59.000000 32.000195
94.000000 16.000000 15.999830
112.000000 25.000000 48.000203
95.000000 17.000000 31.999534
171.000000 192.000000 -48.000241
125.000000 60.000000 0.000292
12.000000 151.000000 -15.999890
162.000000 193.000000 -48.000247
161.000000 184.000000 0.000343
70.000000 107.000000 -0.000360
31.000000 120.000000 32.000491
73.000000 209.000000 -47.999995
106.000000 73.000000 31.999769
145.000000 63.000000 -0.000340
183.000000 152.000000 0.000134
138.000000 197.000000 -47.999966
106.000000 182.000000 -32.000377
95.000000 176.000000 -15.999590
61.000000 115.000000 -16.000234
80.000000 169.000000 0.000431
149.000000 23.000000 0.000338
242.000000 121.000000 -16.000055
63.000000 130.000000 16.000208
229.000000 65.000000 15.999791
152.000000 73.000000 31.999837
9.000000 143.000000 -0.000190
13.000000 100.000000 15.999721
78.000000 89.000000 0.000382
175.000000 226.000000 -0.000207
79.000000 64.000000 47.999724
165.000000 83.000000 15.999635
173.000000 191.000000 -48.000118
67.000000 141.000000 -15.999508
149.000000 229.000000 -48.000104
75.000000 156.000000 -15.999668
13.000000 155.000000 -15.999930
110.000000 71.000000 32.000201
