0.887482 0.324493 0.228394
0.405884 0.617279 0.884277
0.39798 0.236908 0.104065
0.231323 0.0582886 0.0110474
0.894958 0.869812 0.345551
0.978821 0.284241 0.929596
0.297424 0.247375 0.716553
0.656891 0.723938 0.0961609
0.116852 0.316193 0.244476
0.130798 0.115173 0.61026
0.253723 0.339905 0.53537
0.192291 0.323853 0.883026
0.398132 0.0197754 0.982635
0.0492249 0.658752 0.150818
0.691742 0.704742 0.99762
0.719879 0.103394 0.610046
0.80365 0.55777 0.557007
0.47525 0.333832 0.467438
0.800323 0.46756 0.38736
0.303253 0.448151 0.513092
0.778748 0.966461 0.616089
0.494415 0.624054 0.061554
0.802917 0.557648 0.338104
0.998688 0.0715942 0.388031
0.866455 0.793884 0.900879
0.29834 0.282471 0.243134
0.0196228 0.312103 0.422791
0.30896 0.322266 0.779999
0.0748596 0.935516 0.757874
0.385834 0.389374 0.403229
0.0637817 0.0354919 0.425873
0.99881 0.703522 0.768402
0.489075 0.72229 0.568207
0.172058 0.607666 0.553833
0.0171204 0.23291 0.390381
0.490295 0.200195 0.816467
0.220581 0.228851 0.43634
0.474823 0.479034 0.853973
0.927277 0.735992 0.0343628
0.556915 0.505463 0.653961
0.288574 0.271515 0.982605
0.846344 0.105011 0.341339
0.47113 0.440033 0.630219
0.535553 0.741882 0.661713
0.526581 0.0644836 0.582672
0.219818 0.0565796 0.587128
0.128204 0.871277 0.940521
0.774475 0.770386 0.72702
0.108185 0.00283813 0.898315
0.838806 0.855896 0.493958
0.707153 0.302917 0.304382
0.53653 0.681 0.0385437
0.785675 0.541443 0.0427551
0.938843 0.874146 0.954834
0.569946 0.638855 0.467804
0.0762329 0.558563 0.789154
0.435303 0.63797 0.224579
0.149597 0.989136 0.592377
0.396881 0.783752 0.252197
0.109406 0.118164 0.255951
0.00311279 0.729584 0.213928
0.0866089 0.846466 0.296692
0.836243 0.717926 0.654175
0.393982 0.302887 0.225952
0.444489 0.711151 0.474701
0.101196 0.0678406 0.780975
0.88269 0.996368 0.470978
0.641144 0.438721 0.236206
0.752197 0.88443 0.306519
0.657166 0.250366 0.873322
0.327759 0.890259 0.0450134
0.475037 0.0393982 0.597015
0.665405 0.346619 0.840302
0.303436 0.100952 0.763763
0.126556 0.889618 0.221222
0.660339 0.855774 0.667389
0.154663 0.787018 0.230835
0.710999 0.548706 0.924957
0.0239563 0.786377 0.111145
0.315826 0.262756 0.3508
0.275726 0.160919 0.890656
0.743134 0.180115 0.925568
0.284576 0.0559692 0.757263
0.333405 0.578186 0.280701
0.486206 0.20874 0.108582
0.0275269 0.839783 0.855011
0.869751 0.756714 0.291718
0.720581 0.406769 0.664246
0.0192261 0.290222 0.896759
0.999054 0.741302 0.578125
0.905884 0.665283 0.682617
0.0857544 0.603485 0.252716
0.406921 0.50119 0.409851
0.882294 0.931458 0.538788
0.78717 0.867584 0.662292
0.984802 0.949677 0.407928
0.748657 0.542755 0.780609
0.581726 0.451599 0.331085
0.757111 0.523193 0.930603
0.347687 0.135864 0.732849
0.816711 0.310974 0.714661
0.949493 0.0404053 0.756866
0.312164 0.0223999 0.227753
0.703949 0.144867 0.235657
0.593781 0.676025 0.689423
0.398285 0.720886 0.588196
0.271515 0.254791 0.369659
0.42569 0.629181 0.495575
0.335846 0.419617 0.0997314
0.329193 0.116364 0.753876
0.856384 0.207642 0.84024
0.707031 0.37616 0.799438
0.754272 0.799286 0.194885
0.342316 0.83847 0.168365
0.623169 0.613281 0.0338745
0.498413 0.454895 0.717834
0.410461 0.708405 0.150238
0.699677 0.79129 0.922058
0.593628 0.864044 0.742157
0.115082 0.138367 0.0892944
0.917725 0.900757 0.11734
0.00863647 0.735046 0.0517273
0.426208 0.913452 0.978455
0.737762 0.194946 0.881439
0.0429077 0.248138 0.596436
0.594849 0.953613 0.609741
0.971924 0.38266 0.734161
0.524933 0.64267 0.898071
0.302643 0.500061 0.974945
0.533356 0.369141 0.250824
0.059082 0.590393 0.760223
0.555054 0.559967 0.800323
0.147247 0.514038 0.575531
0.80658 0.94751 0.0551453
0.849976 0.725952 0.968079
0.317657 0.0472107 0.411377
0.326355 0.425507 0.0580139
0.55838 0.738983 0.80661
0.613708 0.882996 0.54306
0.972076 0.931976 0.772919
0.529846 0.725677 0.51825
0.911987 0.396973 0.444763
0.258942 0.173859 0.364899
0.0922852 0.3125 0.922333
0.898041 0.716553 0.128143
0.321594 0.519226 0.909546
0.469757 0.642517 0.828308
0.117188 0.532532 0.859467
0.49469 0.311646 0.660583
0.925751 0.655151 0.0970764
0.789246 0.194977 0.657776
0.224304 0.681824 0.671417
0.336639 0.65097 0.742523
0.871429 0.322632 0.145752
0.493805 0.266327 0.810364
0.846405 0.215607 0.284424
0.0739136 0.499481 0.180634
0.0776062 0.878571 0.771088
0.602234 0.442566 0.0599365
0.549255 0.786865 0.811401
0.913849 0.897247 0.202972
0.406952 0.586731 0.868073
0.863586 0.756409 0.357056
0.489471 0.88559 0.963806
0.88327 0.0305481 0.960175
0.714569 0.726318 0.0999756
0.066864 0.875641 0.557709
0.171387 0.378021 0.49704
0.0221252 0.792114 0.130402
0.742462 0.0856628 0.692169
0.517212 0.902863 0.615173
0.721069 0.540283 0.15744
0.602631 0.999878 0.971436
0.328308 0.684235 0.149689
0.0214844 0.00512695 0.82843
0.397217 0.679901 0.100098
0.96756 0.742584 0.663849
0.897552 0.0668335 0.117615
0.227448 0.592651 0.240875
0.556671 0.938812 0.246368
0.0813904 0.820923 0.288849
0.707458 0.0141296 0.102478
0.660461 0.264923 0.783447
0.794098 0.371918 0.549103
0.388031 0.753479 0.28476
0.811798 0.0126038 0.273987
0.300781 0.243195 0.255219
0.473938 0.894653 0.635254
0.0690002 0.315521 0.725708
0.215057 0.328156 0.0654602
0.0460205 0.508026 0.736084
0.373932 0.193604 0.794098
0.295898 0.079834 0.266235
0.184723 0.0270386 0.791931
0.901794 0.360748 0.524567
0.6586 0.193542 0.779663
0.570374 0.928589 0.0959167
0.190765 0.78775 0.00439453
0.244873 0.627502 0.194672
0.90155 0.17511 0.396667
0.746216 0.00405884 0.747192
0.440521 0.847626 0.799347
0.00228882 0.224304 0.866058
0.375549 0.136475 0.338287
0.826385 0.0681458 0.100739
0.478302 0.928101 0.802063
0.0900269 0.302765 0.280365
0.328522 0.492798 0.244629
0.129608 0.738403 0.43161
0.817993 0.482056 0.0423584
0.955536 0.69397 0.778229
0.465088 0.707672 0.450562
0.919373 0.570038 0.840424
0.0777588 0.107269 0.441956
0.567322 0.870514 0.770264
0.351624 0.949554 0.391998
0.0901794 0.45224 0.912781
0.585388 0.469757 0.131531
0.695526 0.144562 0.796204
0.963928 0.367615 0.138794
0.00357056 0.287811 0.951111
0.922974 0.580383 0.316925
0.827393 0.320953 0.765289
0.096405 0.0803528 0.0236816
0.068634 0.4245 0.622467
0.380127 0.76889 0.912811
0.561157 0.524353 0.472443
0.851196 0.470856 0.83551
0.160492 0.807526 0.366272
0.783752 0.198914 0.662659
0.822235 0.418762 0.983215
0.925964 0.882629 0.545532
0.470093 0.320923 0.405182
0.673798 0.267761 0.963806
0.745392 0.538544 0.981995
0.919678 0.309143 0.0359802
0.879639 0.287659 0.703674
0.293396 0.734802 0.116394
0.566864 0.94931 0.676575
0.374329 0.171844 0.798981
0.457092 0.596405 0.717346
0.362 0.921814 0.214783
0.369629 0.957855 0.353149
0.771881 0.779297 0.0753174
0.163666 0.42395 0.277008
0.100891 0.829803 0.400391
0.0262451 0.0895996 0.175659
0.205139 0.562012 0.401001
0.367706 0.0223694 0.451508
0.479004 0.515167 0.694672
0.182709 0.0522156 0.322723
0.94104 0.676239 0.0310669
0.259155 0.539154 0.732574
0.148376 0.569641 0.130646
0.626831 0.904572 0.056488
0.595337 0.0709229 0.208923
0.75824 0.339203 0.385712
0.0377808 0.0473938 0.402313
0.885406 0.149261 0.816681
0.137329 0.610901 0.750305
0.0117798 0.797974 0.311035
0.0733643 0.683197 0.750336
0.393372 0.967957 0.933838
0.443542 0.350861 0.910248
0.0714417 0.0334167 0.257446
0.994812 0.74527 0.302521
0.0793457 0.317932 0.0555115
0.618835 0.553223 0.00219727
0.847046 0.546844 0.734161
0.736176 0.36676 0.588593
0.710571 0.108582 0.879059
0.803864 0.543945 0.737579
0.929352 0.240112 0.463135
0.339813 0.699402 0.447113
0.841492 0.177094 0.28476
0.687714 0.00012207 0.755188
0.375549 0.7789 0.716492
0.872253 0.733276 0.0439758
0.709808 0.281342 0.463196
0.444336 0.762695 0.30835
0.0513611 0.770294 0.382172
0.310791 0.126099 0.221008
0.923187 0.829224 0.130432
0.311371 0.768524 0.579437
0.623627 0.723602 0.102081
0.869537 0.886475 0.893097
0.281006 0.563293 0.424866
0.530609 0.195313 0.589783
0.797028 0.263184 0.326202
0.733643 0.253937 0.713348
0.574463 0.918823 0.579498
0.868347 0.413177 0.174164
0.888641 0.561768 0.626282
0.670685 0.620239 0.724182
0.709076 0.274841 0.963287
0.43454 0.836426 0.988586
0.334167 0.463623 0.113342
0.487244 0.83551 0.213684
0.993134 0.816132 0.585388
0.0196228 0.269775 0.0198669
0.219604 0.265381 0.302277
0.800568 0.742676 0.495758
0.935913 0.225677 0.656158
0.667664 0.842255 0.56601
0.431854 0.62442 0.267426
0.0930481 0.284302 0.832886
0.399261 0.925659 0.298401
0.704559 0.122833 0.155884
0.522552 0.562378 0.433044
0.518616 0.0253906 0.220123
0.446899 0.0860901 0.0027771
0.940002 0.511353 0.377441
0.878235 0.0335999 0.842194
0.430115 0.436127 0.249329
0.734131 0.119873 0.921234
0.262115 0.498688 0.082489
0.291077 0.0264587 0.247894
0.0959778 0.77774 0.772034
0.782776 0.882843 0.591858
0.343414 0.889862 0.937469
0.523651 0.66684 0.870453
0.574921 0.936096 0.580048
0.984528 0.297668 0.189362
0.676819 0.583527 0.788483
0.9617 0.292084 0.164246
0.218048 0.0459595 0.822266
0.6763 0.620392 0.894531
0.6604 0.00213623 0.809601
0.948517 0.964783 0.438416
0.766113 0.250244 0.376709
0.13205 0.0680847 0.476624
0.949921 0.766205 0.903259
0.894501 0.394226 0.674377
0.511749 0.437531 0.89621
0.813934 0.0269165 0.682434
0.797546 0.706146 0.321106
0.756317 0.735352 0.384827
0.494446 0.302185 0.746826
0.727264 0.558777 0.525665
0.595581 0.806335 0.974457
0.978424 0.233124 0.857117
0.197876 0.570221 0.557465
0.222595 0.425507 0.0705261
0.344238 0.17392 0.402954
0.491638 0.181213 0.625275
0.717621 0.734985 0.599731
0.0888672 0.34967 0.803253
0.26178 0.627289 0.870087
0.861816 0.164276 0.514465
0.868469 0.146484 0.716431
0.281372 0.730164 0.18512
0.256134 0.99704 0.554535
0.182983 0.0519104 0.101227
0.200012 0.797729 0.0177612
0.128052 0.531647 0.480957
0.476532 0.734009 0.305878
0.807922 0.713287 0.933563
0.389038 0.652466 0.0638733
0.358307 0.566864 0.456848
0.663879 0.917145 0.933594
0.510864 0.921387 0.354492
0.977692 0.8573 0.752319
0.797577 0.889954 0.0405579
0.518921 0.256104 0.497803
0.175262 0.415497 0.273102
0.926086 0.682495 0.629578
0.0719604 0.519836 0.538696
0.806549 0.181335 0.571045
0.600769 0.590302 0.726257
0.94812 0.535095 0.844971
0.166016 0.212891 0.504364
0.415253 0.615845 0.939209
0.523254 0.781128 0.575317
0.0993042 0.888 0.465942
0.178253 0.502472 0.848816
0.0904236 0.522675 0.710815
0.441101 0.613281 0.181366
0.585114 0.468781 0.373505
0.117096 0.725433 0.290924
0.0601501 0.821014 0.303253
0.342499 0.384888 0.402527
0.259033 0.552032 0.456482
0.0822144 0.253418 0.738617
0.272461 0.765686 0.274689
0.926117 0.951355 0.757568
0.778564 0.698975 0.323151
0.673767 0.647827 0.695313
0.462555 0.382904 0.470306
0.4104 0.0809326 0.098938
0.888489 0.788177 0.249512
0.974548 0.957825 0.285767
0.768921 0.0567322 0.452118
0.523926 0.749268 0.639679
0.799408 0.680908 0.582428
0.947479 0.87912 0.994659
0.116943 0.859406 0.680206
0.771545 0.342651 0.677277
0.131195 0.365021 0.316711
0.593475 0.993286 0.711975
0.0889282 0.719666 0.415161
0.569489 0.237823 0.858826
0.389343 0.921234 0.0645447
0.712402 0.805725 0.17865
0.499268 0.0227966 0.809601
0.343262 0.727631 0.330627
0.443329 0.155273 0.136688
0.611481 0.801086 0.426239
0.393158 0.736023 0.158203
0.182495 0.7612 0.616699
0.975769 0.239807 0.953247
0.604706 0.235199 0.304901
0.688232 0.652893 0.774384
0.145905 0.467285 0.569092
0.370941 0.209961 0.503662
0.646912 0.88205 0.692535
0.177307 0.850769 0.462891
0.810486 0.929413 0.234711
0.0115662 0.656158 0.0740662
0.946594 0.45459 0.479584
0.111267 0.954834 0.0568848
0.158569 0.181915 0.981476
0.452484 0.457703 0.960968
0.900757 0.917938 0.922943
0.08078 0.302551 0.987976
0.396637 0.895416 0.728271
0.440063 0.901459 0.390259
0.195801 0.414246 0.462738
0.415619 0.602173 0.358429
0.799377 0.720398 0.62204
0.246033 0.0288391 0.35965
0.418365 0.017334 0.595642
0.820251 0.179321 0.48407
0.172882 0.757751 0.00592041
0.284668 0.555115 0.624084
0.0195007 0.0362854 0.898804
0.464539 0.404877 0.376465
0.0309753 0.125122 0.0222168
0.481628 0.204773 0.542145
0.976166 0.086731 0.797699
0.24826 0.398712 0.133545
0.0778198 0.0876465 0.693695
0.363892 0.806549 0.0027771
0.993774 0.648224 0.172089
0.458252 0.602173 0.707001
0.091156 0.721832 0.827362
0.338715 0.992126 0.150757
0.593445 0.326813 0.393311
0.536804 0.313568 0.0154419
0.799652 0.581482 0.584167
0.131165 0.841888 0.129639
0.927765 0.541504 0.887268
0.180145 0.780548 0.872009
0.848083 0.334351 0.0584412
0.848358 0.32193 0.56131
0.668915 0.853302 0.816467
0.485901 0.942383 0.695221
0.444183 0.838104 0.710846
0.639587 0.855621 0.980225
0.812744 0.655304 0.974823
0.367859 0.41684 0.47168
0.780914 0.624603 0.998688
0.420715 0.873871 0.941833
0.742584 0.443268 0.489197
0.957275 0.824677 0.939636
0.827789 0.261169 0.0472107
0.631866 0.687439 0.0233459
0.396576 0.384796 0.421448
0.209259 0.0460205 0.461761
0.585236 0.557343 0.705475
0.497223 0.525513 0.435944
0.882385 0.406067 0.864349
0.432861 0.501709 0.556519
0.395416 0.0864563 0.831055
0.755157 0.0838623 0.467133
0.382751 0.515045 0.625641
0.963745 0.0543213 0.556
0.403595 0.990021 0.146851
0.328125 0.426575 0.471649
0.695953 0.579559 0.0935974
0.698364 0.621674 0.359802
0.763519 0.534302 0.513733
0.900787 0.585022 0.63031
0.2547 0.279449 0.378082
0.708099 0.0971375 0.753357
0.680817 0.387604 0.963379
0.874725 0.697998 0.194824
0.967285 0.451111 0.320557
0.652039 0.670349 0.259155
0.88797 0.086853 0.334229
0.669281 0.0363464 0.438049
0.724884 0.543365 0.467163
0.207764 0.141968 0.990417
0.644623 0.662506 0.854889
0.836609 0.756317 0.0278015
0.918488 0.403656 0.59848
0.238068 0.326447 0.474976
0.857147 0.890411 0.518524
0.960052 0.725189 0.0433044
0.809265 0.112701 0.909393
0.912903 0.136383 0.918823
0.411041 0.139313 0.592072
0.804291 0.262787 0.353027
0.0965271 0.0869751 0.433472
0.50528 0.44223 0.878082
0.309845 0.282837 0.10376
0.686371 0.142792 0.572662
0.526276 0.16748 0.804932
0.0794373 0.301147 0.807434
0.714813 0.644714 0.653229
0.536224 0.697632 0.321655
0.884888 0.913574 0.952393
0.79071 0.648804 0.454712
0.47821 0.445862 0.38739
0.615112 0.370697 0.99765
0.2211 0.820526 0.817993
0.0151367 0.0479126 0.569763
0.264984 0.722321 0.486115
0.361359 0.559326 0.787018
0.64032 0.679871 0.695679
0.0281677 0.586761 0.896362
0.855713 0.182434 0.00152588
0.331573 0.0927429 0.130676
0.514984 0.800934 0.282349
0.450745 0.52243 0.916382
0.725281 0.972504 0.39447
0.706421 0.188629 0.363434
0.45459 0.312347 0.035553
0.181915 0.761475 0.314453
0.490265 0.819061 0.612091
0.329498 0.231628 0.746216
0.879395 0.262756 0.931793
0.0361633 0.772461 0.632141
0.319641 0.517212 0.0499268
0.748291 0.218079 0.609558
0.541168 0.738556 0.218781
0.805145 0.0237122 0.0803528
0.901917 0.233124 0.242981
0.225708 0.210571 0.826904
0.835175 0.718567 0.255646
0.961365 0.540588 0.978607
0.0626221 0.589905 0.62854
0.191223 0.645905 0.337189
0.246857 0.88324 0.0348206
0.723663 0.675049 0.790161
0.626068 0.00534058 0.225403
0.100067 0.84024 0.93454
0.776917 0.098053 0.479187
0.702576 0.682404 0.221405
0.614929 0.250305 0.572662
0.169373 0.535522 0.0447083
0.688751 0.789368 0.108612
0.844482 0.198273 0.354584
0.381378 0.696869 0.772034
0.960266 0.830322 0.706268
0.422028 0.93161 0.169098
0.893433 0.209412 0.282471
0.763794 0.224243 0.97757
0.274017 0.339539 0.4758
0.0157166 0.86441 0.818695
0.089325 0.612976 0.213684
0.862579 0.251953 0.176208
0.331757 0.926178 0.475647
0.884979 0.658905 0.463928
0.320953 0.956879 0.517487
0.528595 0.868591 0.603241
0.705933 0.849152 0.302917
0.295166 0.251221 0.840118
0.453278 0.455933 0.676788
0.158661 0.525024 0.636169
0.972504 0.670807 0.0187073
0.376648 0.062561 0.929718
0.0467529 0.876923 0.618164
0.891174 0.260956 0.510986
0.552704 0.768188 0.935974
0.0248718 0.324249 0.312347
0.188477 0.386627 0.387421
0.795776 0.933167 0.704315
0.71283 0.79129 0.42514
0.528381 0.82663 0.0401917
0.653015 0.956482 0.639679
0.151337 0.414734 0.325317
0.191132 0.912476 0.455933
0.269592 0.310608 0.632355
0.112488 0.417664 0.912903
0.40509 0.233429 0.361359
0.420319 0.210663 0.0942993
0.341278 0.220306 0.282471
0.613678 0.760223 0.152924
0.90744 0.618713 0.120514
0.814545 0.0339661 0.673279
0.422852 0.0361328 0.872528
0.0420837 0.770294 0.459534
0.0158691 0.425171 0.715576
0.0896301 0.684662 0.856262
0.760406 0.906403 0.887451
0.790497 0.598602 0.521881
0.661682 0.90213 0.932404
0.0851746 0.27002 0.311798
0.593628 0.79657 0.823578
0.351807 0.354797 0.712097
0.97345 0.777405 0.327057
0.057373 0.0632629 0.21814
0.874054 0.875031 0.185211
0.0541382 0.320648 0.305908
0.0507507 0.62439 0.895081
0.911377 0.21756 0.317017
0.618011 0.353577 0.662659
0.657471 0.876099 0.79892
0.482147 0.98111 0.15686
0.341827 0.177673 0.734833
0.737915 0.502167 0.585663
0.0302734 0.732147 0.787262
0.701111 0.189911 0.00265503
0.350189 0.632355 0.289948
0.696045 0.0558167 0.246155
0.624878 0.564056 0.381653
0.773285 0.426666 0.141266
0.107971 0.351746 0.505432
0.824249 0.733215 0.183746
0.970642 0.63855 0.62323
0.709625 0.888062 0.495911
0.634399 0.753143 0.0454407
0.653351 0.0851135 0.0278015
0.903259 0.529083 0.870117
0.898102 0.606079 0.391052
0.257202 0.538971 0.794159
0.0962219 0.391693 0.990143
0.749237 0.512787 0.623566
0.748932 0.85788 0.874084
0.325226 0.250977 0.296082
0.827942 0.827515 0.601563
0.184082 0.742554 0.762146
0.145782 0.640411 0.015564
0.142181 0.0840149 0.776489
0.707062 0.612732 0.786621
0.983276 0.788483 0.652924
0.797974 0.178009 0.531525
0.589325 0.803375 0.460541
0.581757 0.369415 0.869659
0.384399 0.642212 0.108429
0.0863342 0.932098 0.572052
0.406738 0.109497 0.410217
0.324219 0.401672 0.606598
0.279388 0.77774 0.65799
0.497375 0.0815125 0.0194397
0.601349 0.293518 0.59729
0.437592 0.11853 0.83551
0.955658 0.362793 0.102325
0.238708 0.942291 0.139893
0.950714 0.52771 0.431641
0.0787354 0.317749 0.840424
0.604675 0.214203 0.820038
0.130096 0.295715 0.932648
0.0712585 0.634491 0.463165
0.840759 0.550171 0.0216064
0.317139 0.591309 0.7948
0.363586 0.0932007 0.0197754
0.0197144 0.677399 0.476532
0.139282 0.282532 0.966095
0.782837 0.420929 0.832123
0.226593 0.507019 0.421234
0.896545 0.218506 0.69696
0.545685 0.078186 0.512695
0.414673 0.0476685 0.934174
0.3815 0.79541 0.0578918
0.420044 0.585327 0.326324
0.91153 0.513733 0.904572
0.115143 0.103485 0.301544
0.795654 0.950867 0.327301
0.939789 0.99118 0.127991
0.627747 0.051178 0.623596
0.404114 0.590057 0.930939
0.91571 0.600342 0.595184
0.85849 0.853119 0.279205
0.862274 0.583588 0.000183105
0.126709 0.767822 0.277069
0.179596 0.126343 0.946716
0.930756 0.150604 0.209778
0.119995 0.873474 0.192139
0.460022 0.945465 0.947784
0.460236 0.477356 0.0415649
0.407288 0.169006 0.646088
0.968719 0.602539 0.626343
0.437439 0.763336 0.901367
0.53479 0.636353 0.415802
0.493958 0.47171 0.578522
0.274841 0.251312 0.497253
0.709229 0.0650635 0.114227
0.17276 0.2164 0.0751648
0.09375 0.444397 0.371887
0.792633 0.527893 0.41571
0.75824 0.950653 0.188324
0.937256 0.1521 0.722992
0.300842 0.255402 0.736816
0.450714 0.563934 0.801849
0.289429 0.104828 0.866547
0.292664 0.955109 0.466492
0.615326 0.575745 0.781494
0.179596 0.59729 0.115936
0.0120239 0.994843 0.925354
0.112946 0.503265 0.345673
0.34726 0.902802 0.862122
0.623901 0.359558 0.520844
0.532776 0.0308533 0.41272
0.183899 0.831299 0.52771
0.179291 0.831177 0.450897
0.583252 0.887421 0.0699463
0.579773 0.283203 0.700836
0.793365 0.892578 0.51181
0.355713 0.114502 0.740448
0.525208 0.976685 0.0140686
0.274475 0.849884 0.322052
0.00311279 0.760162 0.186829
0.467682 0.862274 0.203247
0.0144653 0.997528 0.321472
0.671814 0.468292 0.056366
0.695984 0.235901 0.086731
0.302673 0.714752 0.82489
0.401642 0.289948 0.00430298
0.286346 0.464813 0.240204
0.992401 0.336792 0.686829
0.727112 0.340698 0.230011
0.615601 0.857971 0.345551
0.823669 0.635925 0.76413
0.129639 0.626831 0.0847778
0.071106 0.100616 0.419342
0.403137 0.581421 0.620148
0.83551 0.15506 0.729004
0.397552 0.863373 0.910095
0.983643 0.220062 0.337067
0.85965 0.663971 0.4039
0.517395 0.0980835 0.229187
0.225128 0.926758 0.806061
0.22757 0.316345 0.986877
0.594421 0.53656 0.0641174
0.367828 0.682159 0.231201
0.0107727 0.501678 0.327484
0.382507 0.622498 0.315704
0.374603 0.934113 0.525543
0.927429 0.810944 0.0169983
0.790619 0.479553 0.598236
0.924774 0.75238 0.583557
0.591461 0.365387 0.905548
0.316711 0.0201721 0.1604
0.338715 0.550171 0.57251
0.653137 0.350433 0.438782
0.392517 0.693848 0.112122
0.791901 0.417755 0.505554
0.792084 0.951538 0.243042
0.928802 0.469849 0.41687
0.823456 0.048584 0.998535
0.036499 0.711151 0.115906
0.395508 0.846649 0.640656
0.698883 0.0233154 0.0819092
0.823761 0.784271 0.168427
0.408569 0.916931 0.662842
0.458801 0.296204 0.968262
0.771484 0.149475 0.529449
0.419342 0.708496 0.0249329
0.861176 0.84552 0.222443
0.120789 0.295349 0.713623
0.311859 0.839355 0.46933
0.95636 0.295563 0.157867
0.756042 0.954956 0.949127
0.013855 0.844147 0.084259
0.02771 0.666107 0.607513
0.719696 0.105316 0.662354
0.287933 0.667755 0.595184
0.422424 0.51944 0.608429
0.0128784 0.962189 0.545227
0.78006 0.125702 0.482971
0.739716 0.744324 0.344421
0.0295105 0.517883 0.245789
0.717834 0.287628 0.914673
0.413269 0.258118 0.377075
0.285767 0.806702 0.929443
0.844727 0.638214 0.851685
0.0161438 0.532654 0.969666
0.935608 0.66394 0.59082
0.56308 0.606537 0.50061
0.407837 0.171692 0.338623
0.835022 0.49942 0.350281
0.298859 0.191071 0.842041
0.729004 0.130981 0.215637
0.861328 0.169617 0.378815
0.319305 0.30545 0.239807
0.288971 0.599487 0.703461
0.223602 0.140106 0.0189819
0.986023 0.0564575 0.991394
0.997467 0.453491 0.63327
0.671936 0.804321 0.979858
0.956116 0.229706 0.579041
0.793121 0.0574341 0.858307
0.918091 0.910889 0.935883
0.130585 0.855072 0.173492
0.133942 0.0134583 0.852539
0.766907 0.409485 0.71225
0.225952 0.0426636 0.610504
0.336395 0.87027 0.630737
0.452972 0.51767 0.244598
0.351257 0.823792 0.640869
0.146271 0.741638 0.0923767
0.999542 0.645538 0.464447
0.867981 0.382935 0.833252
0.774445 0.169434 0.650513
0.845947 0.599823 0.690552
0.241333 0.154633 0.845398
0.661774 0.966003 0.626953
0.805145 0.846252 0.333679
0.140472 0.464386 0.694092
0.132751 0.661438 0.756348
0.0320129 0.935791 0.324493
0.53421 0.81604 0.983551
0.515167 0.222168 0.402252
0.742615 0.662445 0.803131
0.914398 0.45752 0.545074
0.77536 0.760468 0.999664
0.429993 0.156586 0.297241
0.539276 0.377625 0.175995
0.260742 0.558105 0.998322
0.178802 0.335083 0.928314
0.375793 0.720367 0.0782166
0.489716 0.00924683 0.354828
0.491119 0.767334 0.562225
0.651642 0.987305 0.981567
0.651733 0.0682068 0.775513
0.699493 0.486816 0.652679
0.338379 0.627808 0.737946
0.178375 0.308075 0.378235
0.331818 0.192841 0.663544
0.937469 0.917145 0.190674
0.804138 0.168182 0.450745
0.635895 0.385193 0.351288
0.389923 0.00842285 0.191254
0.889252 0.458252 0.398438
0.444794 0.932587 0.664856
0.696045 0.127319 0.164734
0.451447 0.224915 0.649261
0.482635 0.835907 0.633484
0.706268 0.660919 0.781982
0.410095 0.0276184 0.9841
0.141052 0.357269 0.791473
0.129211 0.221283 0.0137024
0.526581 0.212891 0.291382
0.56842 0.33551 0.944214
0.494446 0.713074 0.131104
0.225769 0.689056 0.056366
0.924438 0.830139 0.641052
0.429321 0.105347 0.257843
0.403687 0.702484 0.128937
0.759003 0.973877 0.217621
0.793152 0.329926 0.797913
0.91098 0.0908203 0.709473
0.564362 0.314178 0.992981
0.357849 0.744934 0.925873
0.618286 0.324371 0.466644
0.839661 0.953796 0.377106
0.893341 0.101135 0.308319
0.636414 0.116302 0.203552
0.33783 0.0585632 0.435211
0.348663 0.75647 0.926697
0.886078 0.519745 0.215607
0.172058 0.612854 0.46991
0.0638428 0.961792 0.0160828
0.0212097 0.205353 0.322449
0.882202 0.9664 0.3573
0.961639 0.309692 0.619659
0.883942 0.505341 0.0519409
0.871277 0.615906 0.296967
0.707916 0.355011 0.310059
0.700409 0.364227 0.970612
0.461975 0.460602 0.454834
0.756073 0.066803 0.424774
0.664154 0.579224 0.722534
0.726532 0.659637 0.174194
0.655884 0.151459 0.746796
0.313904 0.712311 0.143158
0.329193 0.703308 0.876465
0.975616 0.778442 0.682556
0.872192 0.794464 0.571655
0.0212402 0.721558 0.56427
0.144501 0.225098 0.89093
0.788757 0.0247498 0.86615
0.375305 0.520691 0.645966
0.462524 0.81366 0.421509
0.252441 0.255188 0.287476
0.917664 0.714233 0.375458
0.270996 0.173004 0.118286
0.406738 0.857086 0.994873
0.55481 0.955688 0.13562
0.571045 0.450348 0.840546
0.38208 0.472412 0.80545
0.784332 0.502502 0.358368
0.460754 0.0826721 0.496948
0.845581 0.605652 0.502319
0.735687 0.647308 0.274323
0.158325 0.31723 0.793396
0.292847 0.975708 0.387054
0.385437 0.726929 0.869049
0.880524 0.119476 0.238373
0.783234 0.390808 0.712036
0.820221 0.838531 0.973511
0.614166 0.0830688 0.992279
0.752838 0.340332 0.237061
0.845703 0.879578 0.933716
0.887299 0.654449 0.229187
0.382446 0.0738831 0.455383
0.310333 0.371338 0.0674133
0.980438 0.459808 0.659302
0.607117 0.580322 0.759155
0.375732 0.719452 0.668762
0.651917 0.302429 0.93631
0.655365 0.157684 0.986053
0.0877075 0.162659 0.0204468
0.125336 0.947968 0.565704
0.842896 0.101868 0.802063
0.519745 0.524841 0.307343
0.160461 0.219849 0.652832
0.966797 0.901306 0.292175
0.163849 0.99173 0.874329
0.308655 0.628571 0.441101
0.0792847 0.734192 0.139954
0.789276 0.976959 0.984314
0.00213623 0.942383 0.740936
0.398193 0.825165 0.830261
0.659119 0.597229 0.519043
0.919739 0.82489 0.228119
0.104675 0.379761 0.0905151
0.604584 0.785065 0.659363
0.822754 0.552673 0.358459
0.985565 0.0183411 0.293854
0.410828 0.699615 0.499298
0.32135 0.738892 0.230957
0.0243835 0.180054 0.721405
0.0996094 0.617218 0.740234
0.184113 0.681763 0.251465
0.587952 0.412933 0.445313
0.519165 0.263336 0.334656
0.210999 0.342712 0.480957
0.66156 0.398712 0.661194
0.183929 0.622711 0.727753
0.947083 0.387848 0.681305
0.965912 0.582123 0.908264
0.939178 0.712189 0.865601
0.342194 0.993561 0.246582
0.19986 0.10968 0.236023
0.921814 0.942474 0.166656
0.312836 0.951141 0.556915
0.175171 0.776855 0.766144
0.0401001 0.540985 0.561493
0.459045 0.571533 0.170868
0.792664 0.865295 0.623138
0.407501 0.230927 0.97821
0.441071 0.695129 0.485138
0.233185 0.965454 0.461761
0.0102234 0.447723 0.165314
0.509369 0.534821 0.655579
0.115723 0.435181 0.074585
0.51239 0.481323 0.493713
0.236908 0.720428 0.86087
0.823639 0.704254 0.471893
0.204102 0.369904 0.630646
0.243256 0.273499 0.447571
0.732452 0.0765076 0.141113
0.781281 0.478271 0.831024
0.587769 0.540527 0.416748
0.188751 0.87265 0.162476
0.142273 0.272675 0.1521
0.797974 0.645203 0.55011
0.799805 0.242554 0.343353
0.982422 0.126007 0.281036
0.162384 0.665894 0.967346
0.946625 0.776978 0.739807
0.999237 0.825806 0.326263
0.442139 0.717804 0.200653
0.190735 0.788147 0.0213928
0.998474 0.840271 0.725494
0.978729 0.816864 0.537415
0.987549 0.988495 0.925537
0.183319 0.852448 0.232605
0.927582 0.653442 0.353363
0.674377 0.207611 0.26712
0.504608 0.271515 0.412689
0.43457 0.284576 0.784424
0.471619 0.65799 0.524902
0.145844 0.253357 0.616302
0.501221 0.46637 0.506042
0.499878 0.873901 0.0333862
0.843201 0.972961 0.303802
0.496277 0.624664 0.737579
0.897797 0.0668945 0.0518494
0.979828 0.636841 0.512878
0.185364 0.201569 0.43869
0.700287 0.256287 0.843964
0.295929 0.363281 0.289825
0.384186 0.987244 0.501495
0.864899 0.958344 0.645782
0.80896 0.737091 0.703857
0.0697937 0.0366516 0.113251
0.795013 0.307159 0.124268
