ply
format ascii 1.0
comment Generated by the CGAL library
element vertex 1522
property double x
property double y
property double z
end_header
-0.0248032 -0.00798482 0.0259985
-0.0251098 -0.00839719 0.0260456
-0.025439 -0.00874128 0.0261981
-0.0257454 -0.00915375 0.0262452
-0.0260519 -0.00956618 0.0262924
-0.0263358 -0.0100469 0.0262343
-0.0266423 -0.0104593 0.0262815
-0.0269261 -0.01094 0.0262235
-0.02721 -0.0114207 0.0261654
-0.0274938 -0.0119015 0.0261073
-0.0277549 -0.0124505 0.025944
-0.0280161 -0.0129996 0.0257807
-0.0282772 -0.0135487 0.0256174
-0.0285156 -0.0141661 0.0253489
-0.0287541 -0.0147835 0.0250803
-0.0289925 -0.0154009 0.0248118
-0.0292764 -0.0158816 0.0247537
-0.0295829 -0.016294 0.0248009
-0.0298667 -0.0167748 0.0247428
-0.0301506 -0.0172555 0.0246848
-0.0304343 -0.0177362 0.0246268
-0.0307182 -0.018217 0.0245686
-0.0309566 -0.0188344 0.0243
-0.0312178 -0.0193834 0.0241367
-0.0314789 -0.0199325 0.0239735
-0.0317173 -0.0205499 0.0237049
-0.0319558 -0.0211672 0.0234364
-0.0321943 -0.0217847 0.0231678
-0.0324554 -0.0223337 0.0230045
-0.0327165 -0.0228828 0.0228412
-0.032955 -0.0235002 0.0225726
-0.0331934 -0.0241176 0.0223041
-0.0333865 -0.0248716 0.0218251
-0.0336023 -0.0255573 0.0214513
-0.0336819 -0.0266531 0.020446
-0.0339431 -0.0272021 0.0202827
-0.0341816 -0.0278195 0.0200141
-0.0343973 -0.0285052 0.0196404
-0.0346358 -0.0291226 0.0193717
-0.0348516 -0.0298083 0.018998
-0.0349992 -0.030699 0.0183084
-0.035147 -0.0315897 0.0176189
-0.035272 -0.0325487 0.0168241
-0.0354878 -0.0332344 0.0164504
-0.0356127 -0.0341935 0.0156555
-0.0358285 -0.0348792 0.0152818
-0.0359762 -0.0357699 0.0145923
-0.0360785 -0.0367973 0.0136922
-0.0359994 -0.0383712 0.0119503
-0.0353304 -0.0417217 0.00747192
0.0531131 0.0504055 -0.0322846
0.0520108 0.0523856 -0.0285555
0.0514541 0.0527251 -0.0273511
0.0509657 0.0528596 -0.0264622
0.0504546 0.0530623 -0.0254683
0.049898 0.0534018 -0.0242638
0.049455 0.0533995 -0.0235855
0.0489894 0.0534656 -0.0228018
0.048501 0.0536 -0.021913
0.0480581 0.0535977 -0.0212346
0.0475696 0.0537322 -0.0203459
0.0471495 0.0536615 -0.0197726
0.0467066 0.0536592 -0.0190942
0.0462864 0.0535886 -0.018521
0.0458435 0.0535863 -0.0178425
0.0454233 0.0535157 -0.0172693
0.0450032 0.053445 -0.0166962
0.044583 0.0533744 -0.0161229
0.0441401 0.0533721 -0.0154445
0.04372 0.0533014 -0.0148713
0.0433453 0.053094 -0.0145085
0.0429024 0.0530918 -0.01383
0.0425049 0.0529528 -0.0133621
0.0421075 0.0528137 -0.0128941
0.0417101 0.0526748 -0.012426
0.0413354 0.0524674 -0.0120632
0.0409152 0.0523967 -0.01149
0.0405178 0.0522577 -0.011022
0.0400976 0.0521871 -0.0104487
0.0397002 0.0520481 -0.0099807
0.03928 0.0519774 -0.00940753
0.0388826 0.0518384 -0.00893951
0.0384851 0.0516995 -0.00847147
0.0380877 0.0515604 -0.00800346
0.037713 0.0513531 -0.00764066
0.0373156 0.051214 -0.00717265
0.0369409 0.0510067 -0.00680985
0.0365662 0.0507993 -0.00644705
0.0361915 0.050592 -0.00608417
0.0358396 0.0503162 -0.00582653
0.0354876 0.0500405 -0.00556895
0.0351357 0.0497648 -0.00531131
0.0347838 0.049489 -0.00505367
0.0344318 0.0492133 -0.00479608
0.0340799 0.0489376 -0.00453845
0.0337507 0.0485935 -0.00438602
0.0334215 0.0482494 -0.0042336
0.0330695 0.0479737 -0.00397601
0.0327403 0.0476296 -0.00382359
0.0323884 0.0473539 -0.00356595
0.0320365 0.0470782 -0.00330836
0.0316845 0.0468024 -0.00305073
0.0313553 0.0464583 -0.0028983
0.0310261 0.0461142 -0.00274588
0.0306741 0.0458386 -0.00248821
0.0303222 0.0455628 -0.00223057
0.0299703 0.0452871 -0.00197293
0.0296183 0.0450114 -0.00171535
0.0292891 0.0446673 -0.00156292
0.0289372 0.0443915 -0.00130528
0.0286307 0.0439791 -0.00125808
0.0283015 0.043635 -0.00110565
0.0279496 0.0433593 -0.000848013
0.0276204 0.0430152 -0.000695588
0.0272912 0.0426711 -0.000543165
0.026962 0.042327 -0.00039074
0.0266101 0.0420513 -0.000133156
0.0262809 0.0417072 1.92688e-05
0.0259289 0.0414315 0.000276908
0.0256225 0.0410191 0.000324117
0.0252933 0.040675 0.000476541
0.0249868 0.0402625 0.000523805
0.0246576 0.0399184 0.000676229
0.0243284 0.0395744 0.000828653
0.0239765 0.0392987 0.00108624
0.0236245 0.0390229 0.00134388
0.0232499 0.0388155 0.00170668
0.0228979 0.0385398 0.00196432
0.022546 0.0382641 0.0022219
0.0222168 0.03792 0.00237432
0.0218649 0.0376442 0.00263197
0.0215357 0.0373002 0.00278439
0.0212292 0.0368877 0.0028316
0.0209 0.0365437 0.00298402
0.0206163 0.0360629 0.00292607
0.0203553 0.0355137 0.0027629
0.0200488 0.0351013 0.00281017
0.0197424 0.0346888 0.00285738
0.0194359 0.0342764 0.00290464
0.0191067 0.0339323 0.00305706
0.0187775 0.0335882 0.00320949
0.018471 0.0331758 0.0032567
0.0181418 0.0328317 0.00340912
0.0178582 0.0323508 0.00335109
0.0175517 0.0319384 0.0033983
0.0172225 0.0315943 0.00355073
0.0169388 0.0311135 0.00349277
0.0166096 0.0307694 0.0036452
0.0163031 0.030357 0.00369246
0.0159512 0.0300813 0.00395005
0.015622 0.0297372 0.00410247
0.0152928 0.0293931 0.00425489
0.0149409 0.0291174 0.00451253
0.0145889 0.0288416 0.00477012
0.0142142 0.0286343 0.005133
0.0138623 0.0283586 0.00539063
0.0134876 0.0281512 0.00575343
0.0131357 0.0278755 0.00601107
0.0128065 0.0275314 0.0061635
0.0124545 0.0272557 0.00642108
0.0120798 0.0270483 0.00678388
0.0117279 0.0267726 0.00704152
0.0113532 0.0265652 0.00740432
0.0110013 0.0262894 0.00766196
0.0106266 0.0260821 0.00802476
0.0102746 0.0258064 0.00828243
0.00994538 0.0254623 0.00843485
0.00959347 0.0251866 0.00869249
0.00926427 0.0248425 0.00884491
0.00893507 0.0244984 0.00899733
0.00862858 0.024086 0.00904455
0.00834487 0.0236052 0.00898659
0.00806119 0.0231243 0.00892856
0.00775477 0.0227119 0.00897583
0.00744828 0.0222994 0.00902304
0.00709637 0.0220237 0.00928068
0.00674439 0.021748 0.00953826
0.00636968 0.0215407 0.00990114
0.00599499 0.0213333 0.0102639
0.00562037 0.0211259 0.0106268
0.00526838 0.0208502 0.0108844
0.00491648 0.0205744 0.011142
0.00456449 0.0202987 0.0113996
0.00421259 0.020023 0.0116572
0.00388339 0.0196789 0.0118097
0.00357689 0.0192665 0.0118569
0.00327048 0.018854 0.0119041
0.00296399 0.0184416 0.0119513
0.00263479 0.0180975 0.0121038
0.00230559 0.0177534 0.0122562
0.00197639 0.0174093 0.0124086
0.00164719 0.0170653 0.012561
0.00129528 0.0167895 0.0128187
0.000966081 0.0164454 0.0129711
0.000591391 0.0162381 0.0133339
0.000239408 0.0159624 0.0135915
-0.000248995 0.0160968 0.0144803
-0.000646394 0.0159578 0.0149484
-0.00108929 0.0159555 0.0156267
-0.0015322 0.0159532 0.0163052
-0.00195238 0.0158825 0.0168784
-0.00237173 0.0157987 0.0174236
-0.00279116 0.0157149 0.0179687
-0.0031654 0.0155009 0.0183176
-0.00353972 0.015287 0.0186664
-0.00391405 0.0150731 0.0190152
-0.00431087 0.0149242 0.0194622
-0.00470771 0.0147753 0.0199092
-0.00503691 0.0144313 0.0200616
-0.00536611 0.0140872 0.0202141
-0.00576293 0.0139383 0.020661
-0.00611467 0.0136592 0.0209117
-0.00646638 0.0133802 0.0211623
-0.00684069 0.0131662 0.0215111
-0.00716989 0.0128222 0.0216635
-0.00749909 0.0124781 0.0218159
-0.00782829 0.012134 0.0219684
-0.00818002 0.011855 0.022219
-0.0085318 0.011576 0.0224696
-0.00883842 0.0111668 0.0225239
-0.0091902 0.0108878 0.0227744
-0.0095194 0.0105437 0.0229268
-0.0098486 0.0101996 0.0230793
-0.0101778 0.00985554 0.0232317
-0.010507 0.00951146 0.0233841
-0.0108362 0.00916737 0.0235365
-0.0111879 0.00888837 0.0237872
-0.0114946 0.0084792 0.0238414
-0.0118463 0.0082002 0.0240921
-0.012153 0.00779103 0.0241462
-0.0124822 0.00744695 0.0242987
-0.0127888 0.00703779 0.024353
-0.013073 0.00656361 0.024309
-0.0133571 0.00608938 0.024265
-0.0136411 0.00561514 0.0242211
-0.0139478 0.00520598 0.0242753
-0.0142545 0.00479687 0.0243295
-0.0145386 0.00432258 0.0242855
-0.0148453 0.00391348 0.0243398
-0.0151519 0.00350427 0.024394
-0.015436 0.00303014 0.0243501
-0.0156525 0.00236068 0.0240115
-0.0159366 0.00188644 0.0239676
-0.0162432 0.00147728 0.0240218
-0.0165499 0.00106817 0.024076
-0.0168791 0.000724087 0.0242284
-0.0171857 0.000314877 0.0242827
-0.0175149 -2.92083e-05 0.0244351
-0.0178441 -0.000373293 0.0245875
-0.0181733 -0.000717379 0.0247399
-0.0185025 -0.00106146 0.0248924
-0.0188092 -0.00147057 0.0249466
-0.0191384 -0.00181466 0.025099
-0.0194676 -0.00215874 0.0252515
-0.0197743 -0.0025679 0.0253057
-0.0200809 -0.00297712 0.0253599
-0.0203876 -0.00338622 0.0254141
-0.020694 -0.00379864 0.0254613
-0.0210005 -0.00421111 0.0255086
-0.021307 -0.00462353 0.0255558
-0.0216134 -0.005036 0.0256031
-0.0219199 -0.00544842 0.0256503
-0.0222263 -0.00586088 0.0256976
-0.0225327 -0.00627336 0.0257447
-0.0228393 -0.00668572 0.025792
-0.0231685 -0.00702981 0.0259444
-0.0234749 -0.00744233 0.0259916
-0.0237813 -0.00785475 0.0260388
-0.0240878 -0.00826721 0.0260861
-0.024417 -0.0086113 0.0262385
-0.0247462 -0.00895538 0.0263909
-0.0250526 -0.00936781 0.0264381
-0.0253591 -0.00978027 0.0264854
-0.0256428 -0.010261 0.0264274
-0.0259266 -0.0107418 0.0263694
-0.0262103 -0.0112226 0.0263115
-0.026494 -0.0117035 0.0262534
-0.0267777 -0.0121843 0.0261955
-0.0270387 -0.0127334 0.0260323
-0.0273224 -0.0132142 0.0259744
-0.0275606 -0.0138318 0.025706
-0.0277988 -0.0144493 0.0254376
-0.0280371 -0.0150668 0.0251693
-0.0282753 -0.0156843 0.0249009
-0.028559 -0.0161652 0.0248429
-0.0288655 -0.0165776 0.0248901
-0.0291492 -0.0170584 0.0248322
-0.0294556 -0.0174709 0.0248794
-0.0297166 -0.01802 0.0247163
-0.0300231 -0.0184324 0.0247635
-0.030284 -0.0189816 0.0246003
-0.0305223 -0.0195991 0.0243319
-0.0307832 -0.0201483 0.0241688
-0.0310442 -0.0206974 0.0240056
-0.0312597 -0.0213833 0.023632
-0.0314979 -0.0220009 0.0233637
-0.0317361 -0.0226184 0.0230953
-0.0319971 -0.0231675 0.0229322
-0.0322353 -0.0237851 0.0226638
-0.0324736 -0.0244026 0.0223954
-0.032689 -0.0250885 0.0220219
-0.0329273 -0.025706 0.0217534
-0.0329835 -0.0268704 0.0206435
-0.0332445 -0.0274196 0.0204804
-0.0335055 -0.0279687 0.0203172
-0.033721 -0.0286546 0.0199437
-0.0339592 -0.0292721 0.0196752
-0.034152 -0.0300264 0.0191965
-0.0342992 -0.0309173 0.0185073
-0.0344692 -0.03174 0.0179233
-0.0346165 -0.0326309 0.0172343
-0.0348092 -0.0333851 0.0167554
-0.034911 -0.0344128 0.015856
-0.0351493 -0.0350303 0.0155875
-0.035342 -0.0357846 0.0151088
-0.0353301 -0.037154 0.0136833
-0.0353409 -0.0384551 0.0123629
-0.0346011 -0.0420122 0.00757106
0.0534446 0.0499762 -0.0317178
0.052363 0.0518891 -0.0280954
0.0517603 0.0523656 -0.0266812
0.0512715 0.0525003 -0.0257927
0.0507371 0.0527718 -0.0246939
0.0502255 0.0529748 -0.0237003
0.0497595 0.0530411 -0.0229169
0.0492707 0.0531758 -0.0220285
0.0488275 0.0531736 -0.0213503
0.0483616 0.0532399 -0.020567
0.0479184 0.0532377 -0.0198888
0.0474751 0.0532357 -0.0192106
0.0470548 0.0531651 -0.0186375
0.0466115 0.053163 -0.0179594
0.0461911 0.0530925 -0.0173864
0.0457707 0.053022 -0.0168134
0.0453276 0.0530199 -0.0161352
0.0449072 0.0529493 -0.0155622
0.0444868 0.0528788 -0.0149891
0.0440892 0.0527399 -0.0145213
0.0436688 0.0526694 -0.0139482
0.0432484 0.0525989 -0.0133751
0.0428508 0.05246 -0.0129073
0.0424533 0.0523211 -0.0124394
0.0420329 0.0522505 -0.0118664
0.041658 0.0520433 -0.0115037
0.0412605 0.0519043 -0.0110358
0.0408629 0.0517654 -0.0105679
0.0404652 0.0516265 -0.0101001
0.0400448 0.051556 -0.00952703
0.0396473 0.0514171 -0.00905913
0.0392497 0.0512782 -0.00859127
0.0388521 0.0511393 -0.00812341
0.0384545 0.0510003 -0.00765551
0.0380569 0.0508614 -0.00718765
0.0376821 0.0506542 -0.00682496
0.0373073 0.0504469 -0.00646213
0.0369325 0.0502396 -0.00609944
0.0365805 0.0499639 -0.00584186
0.0362057 0.0497566 -0.00547911
0.0358537 0.0494809 -0.00522152
0.0355017 0.0492052 -0.00496399
0.0351497 0.0489295 -0.0047064
0.0347977 0.0486538 -0.00444882
0.0344457 0.0483781 -0.00419124
0.0341165 0.048034 -0.00403881
0.0337873 0.0476899 -0.00388639
0.0334353 0.0474143 -0.00362886
0.0330833 0.0471386 -0.00337127
0.0327313 0.0468629 -0.00311368
0.0323566 0.0466555 -0.00275094
0.0320501 0.0462431 -0.00270367
0.0317209 0.045899 -0.00255125
0.0313917 0.0455549 -0.00239883
0.0310169 0.0453476 -0.00203613
0.0306649 0.0450719 -0.00177855
0.030313 0.0447962 -0.00152096
0.0299838 0.0444521 -0.00136854
0.0296318 0.0441764 -0.00111095
0.0293254 0.043764 -0.00106369
0.0289962 0.0434199 -0.000911263
0.0286442 0.0431442 -0.000653679
0.028315 0.0428001 -0.000501254
0.0279629 0.0425244 -0.000243721
0.0276337 0.0421803 -9.12977e-05
0.0272817 0.0419046 0.000166287
0.0269525 0.0415606 0.000318711
0.0266006 0.0412848 0.000576295
0.0262714 0.0409408 0.00072872
0.0259649 0.0405283 0.000775984
0.0256814 0.0400474 0.000718139
0.025375 0.0396349 0.000765402
0.0250458 0.0392909 0.000917827
0.0246938 0.0390151 0.00117541
0.0243417 0.0387395 0.00143294
0.0239897 0.0384638 0.00169053
0.023615 0.0382565 0.00205328
0.0232629 0.0379808 0.00231081
0.0229337 0.0376367 0.00246323
0.0226045 0.0372926 0.00261566
0.0222753 0.0369485 0.00276808
0.0219233 0.0366728 0.00302567
0.0216169 0.0362604 0.00307293
0.0213106 0.0358479 0.00312025
0.0210269 0.035367 0.00306235
0.0207434 0.0348861 0.0030045
0.020437 0.0344737 0.00305176
0.0201305 0.0340612 0.00309902
0.0198013 0.0337171 0.00325145
0.0194721 0.033373 0.00340387
0.0191429 0.0330289 0.0035563
0.0188137 0.0326849 0.00370872
0.0185302 0.032204 0.00365088
0.0182238 0.0317915 0.00369814
0.0178946 0.0314474 0.00385056
0.0176109 0.0309666 0.00379267
0.0173045 0.0305541 0.00383993
0.0169982 0.0301416 0.00388724
0.016669 0.0297975 0.00403967
0.0163398 0.0294534 0.00419209
0.0160106 0.0291093 0.00434451
0.0156585 0.0288337 0.00460205
0.0153065 0.028558 0.00485964
0.0149318 0.0283506 0.00522238
0.0145798 0.0280749 0.00547997
0.014205 0.0278677 0.00584266
0.013853 0.027592 0.00610025
0.013501 0.0273163 0.00635783
0.0131718 0.0269722 0.00651026
0.0128197 0.0266965 0.00676779
0.0124678 0.0264208 0.00702537
0.012093 0.0262135 0.00738812
0.0117182 0.0260062 0.00775082
0.0113662 0.0257305 0.0080084
0.0110142 0.0254548 0.00826598
0.0106622 0.0251791 0.00852357
0.0103102 0.0249034 0.0087811
0.00998097 0.0245593 0.00893353
0.00967462 0.0241468 0.00898084
0.00934542 0.0238027 0.00913327
0.00906179 0.0233219 0.00907537
0.00875537 0.0229094 0.00912263
0.00844895 0.022497 0.0091699
0.00811975 0.0221529 0.00932232
0.00779055 0.0218088 0.00947474
0.00741579 0.0216015 0.00983749
0.00704103 0.0213942 0.0102002
0.00666619 0.0211869 0.0105629
0.00629143 0.0209796 0.0109257
0.00593938 0.0207039 0.0111832
0.00558737 0.0204282 0.0114409
0.00523542 0.0201525 0.0116984
0.00492897 0.0197401 0.0117457
0.00459977 0.019396 0.0118981
0.00427057 0.0190519 0.0120506
0.00396418 0.0186394 0.0120978
0.00365783 0.0182269 0.0121451
0.00332863 0.0178828 0.0122975
0.00299943 0.0175387 0.0124499
0.00267023 0.0171946 0.0126023
0.00236382 0.0167822 0.0126496
0.00201183 0.0165064 0.0129072
0.00170542 0.016094 0.0129545
0.001399 0.0156815 0.0130017
0.0010698 0.0153374 0.0131541
0.00071782 0.0150617 0.0134117
0.000320179 0.0149229 0.0138797
-3.17747e-05 0.0146471 0.0141372
-0.000429416 0.0145083 0.0146051
-0.000826959 0.0143693 0.015073
-0.00127021 0.0143672 0.0157511
-0.00166775 0.0142283 0.016219
-0.00215657 0.014363 0.0171075
-0.00266754 0.0145562 0.0180802
-0.00304199 0.0143423 0.0184289
-0.00341637 0.0141284 0.0187776
-0.00376815 0.0138494 0.0190281
-0.00418772 0.0137657 0.0195732
-0.00456218 0.0135518 0.0199219
-0.00491398 0.0132729 0.0201725
-0.00526576 0.0129939 0.020423
-0.00561757 0.0127149 0.0206736
-0.00596934 0.0124359 0.0209242
-0.00632115 0.0121569 0.0211748
-0.00667293 0.0118779 0.0214253
-0.00700213 0.0115338 0.0215778
-0.00733133 0.0111897 0.0217302
-0.00766053 0.0108457 0.0218826
-0.00798973 0.0105016 0.022035
-0.0083416 0.0102227 0.0222856
-0.00869338 0.00994364 0.0225361
-0.00902258 0.00959955 0.0226886
-0.0093292 0.0091904 0.0227429
-0.0096584 0.00884631 0.0228953
-0.0099876 0.00850223 0.0230477
-0.0103394 0.00822321 0.0232982
-0.0106912 0.00794425 0.0235489
-0.0110204 0.00760016 0.0237013
-0.011327 0.00719096 0.0237555
-0.0116562 0.00684687 0.0239079
-0.0119401 0.00637255 0.0238641
-0.0122467 0.0059634 0.0239184
-0.0125308 0.00548912 0.0238745
-0.01286 0.00514504 0.024027
-0.0131214 0.00460563 0.0238849
-0.0134053 0.00413131 0.023841
-0.0136893 0.00365703 0.0237972
-0.0139959 0.00324788 0.0238515
-0.0142348 0.00264341 0.0236113
-0.0144961 0.00210396 0.0234692
-0.0148027 0.00169475 0.0235235
-0.0151093 0.0012856 0.0235778
-0.0154385 0.000941518 0.0237302
-0.0157677 0.000597433 0.0238826
-0.0160969 0.000253348 0.0240351
-0.0164261 -9.07376e-05 0.0241875
-0.0167779 -0.000369759 0.024438
-0.0171071 -0.000713843 0.0245904
-0.0174363 -0.00105793 0.0247429
-0.0177881 -0.00133689 0.0249935
-0.0181173 -0.00168097 0.0251459
-0.0184465 -0.00202506 0.0252983
-0.0187531 -0.00243427 0.0253526
-0.0190823 -0.00277835 0.025505
-0.0193889 -0.0031875 0.0255593
-0.0196953 -0.00359997 0.0256066
-0.0200245 -0.00394406 0.025759
-0.020331 -0.00435652 0.0258062
-0.0206145 -0.00483741 0.0257484
-0.0209209 -0.00524988 0.0257957
-0.0212274 -0.00566234 0.0258429
-0.0215337 -0.00607485 0.0258902
-0.0218401 -0.00648732 0.0259375
-0.0221693 -0.00683141 0.0260899
-0.0224757 -0.00724387 0.0261372
-0.0227822 -0.00765633 0.0261845
-0.0231114 -0.00800042 0.0263369
-0.0234177 -0.00841293 0.0263842
-0.0237241 -0.0088254 0.0264315
-0.0240305 -0.00923786 0.0264787
-0.024337 -0.00965033 0.026526
-0.0246434 -0.0100628 0.0265732
-0.0249497 -0.0104753 0.0266206
-0.0252333 -0.0109562 0.0265626
-0.0255169 -0.011437 0.0265048
-0.0257778 -0.0119863 0.0263418
-0.0260613 -0.0124672 0.0262838
-0.0263222 -0.0130164 0.0261208
-0.026583 -0.0135657 0.0259578
-0.0268665 -0.0140466 0.0258999
-0.0271046 -0.0146642 0.0256317
-0.0273197 -0.0153503 0.0252584
-0.0275806 -0.0158995 0.0250954
-0.0278642 -0.0163804 0.0250375
-0.0281478 -0.0168613 0.0249796
-0.0284542 -0.0172737 0.0250269
-0.0287606 -0.0176862 0.0250742
-0.0290442 -0.0181671 0.0250163
-0.029305 -0.0187164 0.0248533
-0.0295886 -0.0191972 0.0247954
-0.0298494 -0.0197465 0.0246324
-0.0300874 -0.0203642 0.0243641
-0.0303254 -0.0209818 0.0240961
-0.0305634 -0.0215995 0.0238278
-0.0307786 -0.0222855 0.0234545
-0.0310394 -0.0228348 0.0232915
-0.0313003 -0.023384 0.0231284
-0.0315155 -0.0240701 0.0227551
-0.0317763 -0.0246193 0.0225921
-0.0319915 -0.0253054 0.0222187
-0.0322295 -0.025923 0.0219506
-0.0324218 -0.0266775 0.0214721
-0.0325458 -0.0276371 0.0206781
-0.0327839 -0.0282547 0.0204099
-0.0330447 -0.028804 0.0202469
-0.0332599 -0.02949 0.0198736
-0.0334295 -0.0303129 0.01929
-0.033622 -0.0310673 0.0188115
-0.0337915 -0.0318902 0.0182278
-0.0339612 -0.032713 0.0176442
-0.034108 -0.0336042 0.0169554
-0.034232 -0.0345638 0.0161615
-0.0344244 -0.0353183 0.015683
-0.034594 -0.0361411 0.0150994
-0.034604 -0.0374427 0.0137797
-0.0346368 -0.0386759 0.0125652
-0.0339401 -0.0420976 0.0079858
-0.0333446 -0.0465473 0.0025073
0.0540822 0.0499595 -0.0311984
0.0535702 0.0501628 -0.0302052
0.0526468 0.0515977 -0.0273201
0.0520433 0.0520748 -0.0259064
0.051577 0.0521412 -0.0251233
0.0510192 0.0524815 -0.0239199
0.0505529 0.0525479 -0.0231369
0.0500866 0.0526143 -0.0223538
0.0495974 0.0527492 -0.0214656
0.049154 0.0527473 -0.0207876
0.0486876 0.0528137 -0.0200046
0.048267 0.0527434 -0.0194317
0.0478006 0.0528099 -0.0186487
0.04738 0.0527394 -0.0180759
0.0469594 0.0526691 -0.0175031
0.0465388 0.0525987 -0.0169302
0.0461182 0.0525283 -0.0163573
0.0456976 0.0524579 -0.0157845
0.045277 0.0523875 -0.0152116
0.0448564 0.0523172 -0.0146388
0.0444586 0.0521783 -0.0141711
0.044038 0.0521079 -0.0135982
0.0436173 0.0520376 -0.0130254
0.0431967 0.0519672 -0.0124526
0.042799 0.0518284 -0.0119848
0.0423784 0.051758 -0.011412
0.0420035 0.0515508 -0.0110493
0.0416057 0.051412 -0.0105816
0.0412079 0.0512731 -0.0101138
0.0408102 0.0511343 -0.00964609
0.0404124 0.0509955 -0.00917834
0.0399918 0.0509251 -0.00860556
0.0396169 0.0507179 -0.00824292
0.0392192 0.0505791 -0.00777518
0.0388214 0.0504402 -0.00730743
0.0384465 0.050233 -0.00694478
0.0380487 0.0500942 -0.00647709
0.0376738 0.049887 -0.00611445
0.0373217 0.0496114 -0.00585692
0.0369468 0.0494041 -0.00549427
0.0365948 0.0491285 -0.00523674
0.0362198 0.0489212 -0.0048741
0.0358678 0.0486456 -0.00461657
0.0355157 0.0483699 -0.00435904
0.0351637 0.0480942 -0.0041015
0.0348345 0.0477502 -0.00394908
0.0344824 0.0474745 -0.00369155
0.0341304 0.0471988 -0.00343401
0.0337783 0.0469232 -0.00317648
0.0334034 0.046716 -0.00281384
0.0330514 0.0464402 -0.00255639
0.0327222 0.0460961 -0.00240397
0.032393 0.0457521 -0.00225154
0.0320638 0.045408 -0.00209912
0.0317117 0.0451323 -0.00184158
0.0313597 0.0448567 -0.00158405
0.0310076 0.0445811 -0.00132644
0.0306784 0.044237 -0.00117402
0.0303264 0.0439613 -0.000916566
0.0299972 0.0436172 -0.000764141
0.029668 0.0432731 -0.000611717
0.0293159 0.0429974 -0.000354185
0.0289867 0.0426533 -0.00020176
0.0286575 0.0423093 -4.93357e-05
0.0283055 0.0420336 0.000208196
0.0279534 0.0417579 0.00046573
0.0276242 0.0414139 0.000618154
0.0272722 0.0411382 0.000875688
0.026943 0.0407941 0.00102811
0.0266366 0.0403816 0.00107543
0.0263531 0.0399007 0.00101763
0.0260696 0.0394198 0.000959923
0.0257633 0.0390072 0.00100716
0.0254341 0.0386631 0.00115958
0.025082 0.0383875 0.0014172
0.0247071 0.0381802 0.00177975
0.0243551 0.0379046 0.00203729
0.0240259 0.0375605 0.00218971
0.023651 0.0373533 0.00255235
0.0233218 0.0370092 0.00270478
0.0229926 0.0366651 0.0028572
0.0226634 0.036321 0.00300963
0.0223342 0.0359769 0.00316205
0.0220278 0.0355644 0.00320936
0.0217443 0.0350835 0.00315157
0.0214608 0.0346026 0.00309386
0.0211316 0.0342585 0.00324628
0.0208253 0.0338459 0.00329352
0.0204961 0.0335019 0.00344594
0.0201669 0.0331578 0.00359837
0.0198377 0.0328137 0.00375079
0.0195085 0.0324696 0.00390322
0.0192022 0.0320571 0.00395053
0.0188958 0.0316446 0.00399785
0.0185894 0.0312321 0.00404524
0.018306 0.0307512 0.00398745
0.0180225 0.0302702 0.00392966
0.0176933 0.0299262 0.00408208
0.0173869 0.0295137 0.0041294
0.0170577 0.0291696 0.00428182
0.0167285 0.0288255 0.00443425
0.0163765 0.0285498 0.00469178
0.0160244 0.0282742 0.00494931
0.0156724 0.0279985 0.00520685
0.0152974 0.0277913 0.00556948
0.0149454 0.0275156 0.00582694
0.0145705 0.0273083 0.00618958
0.0142413 0.0269642 0.006342
0.0139121 0.0266201 0.00649443
0.01356 0.0263445 0.00675204
0.0132308 0.0260005 0.00690446
0.012856 0.0257932 0.00726702
0.012481 0.0255859 0.00762966
0.0121061 0.0253787 0.00799231
0.0117541 0.025103 0.00824984
0.011402 0.0248274 0.00850737
0.01105 0.0245517 0.0087649
0.0107208 0.0242076 0.00891733
0.0103916 0.0238636 0.00906975
0.0100852 0.023451 0.00911707
0.00975604 0.023107 0.00926949
0.00947255 0.022626 0.0092117
0.00914335 0.0222819 0.00936412
0.00881415 0.0219379 0.00951655
0.00848495 0.0215938 0.00966897
0.00811004 0.0213865 0.0100316
0.00771228 0.0212477 0.0104994
0.00736023 0.0209721 0.0107569
0.00698533 0.0207648 0.0111195
0.00663327 0.0204892 0.0113771
0.00628122 0.0202135 0.0116346
0.00595202 0.0198694 0.011787
0.00562282 0.0195253 0.0119394
0.00529362 0.0191813 0.0120919
0.00498727 0.0187688 0.0121392
0.00465807 0.0184247 0.0122916
0.00432887 0.0180806 0.012444
0.00399967 0.0177365 0.0125965
0.00367047 0.0173924 0.0127489
0.00334127 0.0170483 0.0129013
0.00301208 0.0167042 0.0130537
0.00272859 0.0162233 0.0129959
0.00242224 0.0158108 0.0130433
0.00211589 0.0153983 0.0130906
0.00180954 0.0149858 0.0131379
0.00148034 0.0146417 0.0132903
0.00112829 0.014366 0.0135478
0.00077624 0.0140904 0.0138054
0.000424189 0.0138147 0.0140629
4.92789e-05 0.0136075 0.0144255
-0.000302773 0.0133318 0.0146831
-0.000631973 0.0129877 0.0148355
-0.000984025 0.0127121 0.015093
-0.00145041 0.0127786 0.0158761
-0.00187103 0.0127082 0.0164489
-0.00236018 0.012843 0.017337
-0.00278079 0.0127727 0.0179099
-0.00315569 0.0125654 0.0182725
-0.0035306 0.0123582 0.0186352
-0.00392816 0.0122161 0.0190959
-0.00437062 0.0121977 0.0197389
-0.00467721 0.0117885 0.0197931
-0.00505167 0.0115746 0.0201418
-0.00540354 0.0112957 0.0203924
-0.00577807 0.0110819 0.020741
-0.00610727 0.0107378 0.0208934
-0.00643647 0.0103937 0.0210458
-0.006811 0.0101799 0.0213945
-0.0071402 0.00983584 0.0215469
-0.00744672 0.00942659 0.0216012
-0.00782125 0.00921278 0.0219498
-0.00817312 0.00893387 0.0222004
-0.008457 0.0084595 0.0221566
-0.0087862 0.00811542 0.022309
-0.0091154 0.00777133 0.0224614
-0.00946725 0.00749236 0.0227119
-0.00981912 0.00721344 0.0229625
-0.0101256 0.00680419 0.0230168
-0.0104548 0.0064601 0.0231692
-0.0108067 0.00618119 0.0234198
-0.0111132 0.00577193 0.023474
-0.0113971 0.00529756 0.0234303
-0.0116583 0.00475808 0.0232884
-0.0119875 0.004414 0.0234408
-0.0122261 0.00380939 0.0232008
-0.01251 0.00333503 0.023157
-0.0127939 0.00286066 0.0231133
-0.0130545 0.0023113 0.0229503
-0.013338 0.00183036 0.0228926
-0.0136444 0.00141785 0.0229399
-0.0139736 0.00107376 0.0230923
-0.0143256 0.000798107 0.0233498
-0.0146548 0.000454021 0.0235023
-0.0150069 0.000178361 0.0237598
-0.0153361 -0.000165723 0.0239122
-0.0156881 -0.000441383 0.0241697
-0.0160402 -0.000717043 0.0244273
-0.0163694 -0.00106113 0.0245797
-0.0167214 -0.00133679 0.0248372
-0.0170735 -0.00161245 0.0250948
-0.0174027 -0.00195653 0.0252472
-0.0177319 -0.00230062 0.0253996
-0.0180611 -0.0026447 0.025552
-0.0183903 -0.00298879 0.0257045
-0.0187195 -0.00333287 0.0258569
-0.0190258 -0.00374538 0.0259042
-0.0193322 -0.00415789 0.0259515
-0.0196385 -0.0045704 0.0259988
-0.0199449 -0.00498291 0.0260461
-0.0202512 -0.00539543 0.0260935
-0.0205576 -0.00580794 0.0261408
-0.0208639 -0.00622045 0.0261881
-0.0211703 -0.00663296 0.0262354
-0.0214766 -0.00704547 0.0262827
-0.0218058 -0.00738955 0.0264352
-0.0220893 -0.00787049 0.0263774
-0.0223956 -0.008283 0.0264247
-0.0227248 -0.00862709 0.0265771
-0.0230312 -0.00903954 0.0266245
-0.0233375 -0.00945211 0.0266717
-0.0236439 -0.00986456 0.0267191
-0.0239274 -0.0103455 0.0266613
-0.0242337 -0.010758 0.0267086
-0.0245172 -0.0112389 0.0266509
-0.0248007 -0.0117199 0.0265931
-0.0250613 -0.0122693 0.0264302
-0.0253448 -0.0127502 0.0263724
-0.0256054 -0.0132996 0.0262095
-0.0258661 -0.013849 0.0260466
-0.0261267 -0.0143983 0.0258837
-0.0263873 -0.0149477 0.0257208
-0.0266251 -0.0155655 0.0254528
-0.0268858 -0.0161148 0.0252899
-0.0271693 -0.0165957 0.0252322
-0.0274528 -0.0170766 0.0251744
-0.0277591 -0.0174892 0.0252217
-0.0280426 -0.0179701 0.0251639
-0.028349 -0.0183826 0.0252112
-0.0286096 -0.018932 0.0250483
-0.0288931 -0.0194129 0.0249906
-0.0291309 -0.0200307 0.0247225
-0.0293686 -0.0206485 0.0244546
-0.0296292 -0.0211979 0.0242917
-0.0298442 -0.0218841 0.0239186
-0.0300591 -0.0225703 0.0235455
-0.0302969 -0.023188 0.0232775
-0.0305804 -0.023669 0.0232197
-0.0308182 -0.0242868 0.0229517
-0.031056 -0.0249046 0.0226837
-0.0312938 -0.0255223 0.0224157
-0.0315087 -0.0262086 0.0220426
-0.0317236 -0.0268948 0.0216695
-0.03187 -0.0277862 0.0209812
-0.0321078 -0.028404 0.0207132
-0.0323455 -0.0290218 0.0204451
-0.0325605 -0.029708 0.020072
-0.0327297 -0.0305311 0.0194887
-0.0329218 -0.0312857 0.0190105
-0.0331367 -0.031972 0.0186374
-0.0332602 -0.0329319 0.0178439
-0.0334294 -0.0337549 0.0172606
-0.0335529 -0.0347148 0.0164671
-0.0337222 -0.0355379 0.0158837
-0.0338686 -0.0364293 0.0151954
-0.0339692 -0.0374577 0.0142967
-0.0338642 -0.0391019 0.0124522
-0.0333706 -0.0419093 0.00882086
-0.033517 -0.0428007 0.00813241
-0.0327035 -0.0465661 0.00302959
0.0543675 0.0496673 -0.0304218
0.0535114 0.0508978 -0.027853
0.0529301 0.0513067 -0.026545
0.0523489 0.0517157 -0.0252369
0.0518364 0.0519192 -0.0242441
0.0513698 0.0519859 -0.0234613
0.0508573 0.0521895 -0.0224684
0.0503907 0.0522562 -0.0216856
0.049924 0.0523228 -0.0209028
0.0494802 0.052321 -0.0202251
0.0490365 0.0523192 -0.0195474
0.0485928 0.0523174 -0.0188696
0.048149 0.0523156 -0.018192
0.0477281 0.0522454 -0.0176193
0.0473073 0.0521751 -0.0170466
0.0468865 0.0521048 -0.016474
0.0464657 0.0520346 -0.0159013
0.0460448 0.0519644 -0.0153287
0.045624 0.0518941 -0.014756
0.0452031 0.0518238 -0.0141833
0.0448052 0.0516852 -0.0137158
0.0443844 0.0516149 -0.0131431
0.0439635 0.0515446 -0.0125704
0.0435656 0.0514059 -0.0121029
0.0431448 0.0513356 -0.0115302
0.0427239 0.0512654 -0.0109575
0.0423489 0.0510583 -0.010595
0.041951 0.0509195 -0.0101274
0.0415759 0.0507124 -0.00976482
0.0411551 0.0506421 -0.00919221
0.0407572 0.0505034 -0.00872462
0.0403593 0.0503647 -0.00825697
0.0399842 0.0501575 -0.00789452
0.0395863 0.0500188 -0.00742688
0.0392113 0.0498116 -0.00706434
0.0388134 0.0496729 -0.0065967
0.0384383 0.0494658 -0.00623417
0.0380633 0.0492586 -0.00587163
0.0376883 0.0490514 -0.00550912
0.0373362 0.0487758 -0.00525164
0.0369614 0.0485685 -0.00488895
0.0366089 0.0482931 -0.00463168
0.0362572 0.0480172 -0.00437388
0.0359048 0.0477417 -0.00411662
0.0355299 0.0475345 -0.00375398
0.0351775 0.0472591 -0.00349671
0.0348483 0.046915 -0.00334429
0.0344734 0.0467077 -0.00298172
0.0340985 0.0465005 -0.00261908
0.0337461 0.046225 -0.00236182
0.0333944 0.0459491 -0.00210402
0.0330652 0.0456051 -0.0019516
0.032736 0.045261 -0.00179917
0.0324068 0.0449169 -0.00164675
0.0320544 0.0446415 -0.00138948
0.0317027 0.0443656 -0.00113168
0.0313503 0.0440901 -0.000874415
0.0310211 0.0437461 -0.00072199
0.0306919 0.043402 -0.000569566
0.0303395 0.0431265 -0.000312297
0.0300103 0.0427824 -0.000159874
0.0296586 0.0425066 9.79242e-05
0.0293294 0.0421625 0.000250349
0.0290002 0.0418184 0.000402773
0.0286478 0.041543 0.000660036
0.0282961 0.041267 0.000917755
0.0279669 0.0409229 0.00107018
0.0276377 0.0405789 0.0012226
0.027331 0.0401666 0.00126973
0.0270018 0.0398225 0.00142216
0.0267183 0.0393416 0.00136437
0.026458 0.038792 0.00120173
0.0261288 0.0384479 0.00135415
0.0257996 0.0381038 0.00150658
0.0254704 0.0377598 0.001659
0.0250955 0.0375525 0.00202164
0.0247663 0.0372084 0.00217407
0.0243914 0.0370012 0.00253671
0.0240622 0.0366571 0.00268913
0.0237098 0.0363817 0.0029464
0.0233806 0.0360376 0.00309882
0.0230514 0.0356935 0.00325125
0.0227454 0.0352808 0.00329883
0.0224619 0.0347998 0.00324104
0.0221559 0.0343871 0.00328862
0.0218492 0.0339748 0.00333567
0.0215432 0.0335621 0.00338325
0.021214 0.033218 0.00353567
0.0208848 0.0328739 0.0036881
0.0205324 0.0325985 0.00394536
0.0202032 0.0322544 0.00409779
0.0198972 0.0318417 0.00414537
0.0195905 0.0314294 0.00419242
0.0192613 0.0310853 0.00434484
0.0189554 0.0306725 0.00439243
0.0186951 0.030123 0.00422987
0.0183883 0.0297107 0.00427692
0.0180824 0.029298 0.0043245
0.0177532 0.0289539 0.00447693
0.017424 0.0286098 0.00462935
0.0170948 0.0282657 0.00478178
0.0167423 0.0279903 0.00503904
0.0163907 0.0277144 0.00529684
0.0160383 0.0274389 0.00555403
0.0156634 0.0272317 0.00591667
0.0153109 0.0269563 0.00617393
0.0149593 0.0266804 0.00643173
0.0146301 0.0263363 0.00658416
0.0143009 0.0259922 0.00673658
0.0139717 0.0256481 0.006889
0.0135968 0.0254409 0.00725165
0.0132211 0.0252341 0.00761376
0.0128462 0.0250269 0.0079764
0.0124945 0.0247509 0.00823411
0.0121421 0.0244755 0.00849138
0.0117904 0.0241996 0.00874918
0.0114612 0.0238555 0.0089016
0.0111088 0.0235801 0.00915887
0.0108028 0.0231674 0.00920645
0.0104736 0.0228233 0.00935888
0.0101669 0.022411 0.00940593
0.00983774 0.0220669 0.00955835
0.00950854 0.0217228 0.00971078
0.00915685 0.0214469 0.00996857
0.00880444 0.0211715 0.0102258
0.00842953 0.0209643 0.0105885
0.00805463 0.020757 0.0109511
0.00770222 0.0204816 0.0112084
0.00734981 0.0202062 0.0114657
0.00699811 0.0199303 0.0117235
0.00666891 0.0195862 0.0118759
0.00633971 0.0192421 0.0120283
0.00601051 0.018898 0.0121807
0.00568131 0.0185539 0.0123332
0.00535212 0.0182099 0.0124856
0.00502291 0.0178658 0.012638
0.00467052 0.0175903 0.0128952
0.00434132 0.0172462 0.0130476
0.00401212 0.0169021 0.0132
0.00370612 0.0164894 0.0132477
0.00344583 0.0159398 0.0130851
0.00313913 0.0155276 0.0131321
0.00283314 0.0151148 0.0131797
0.00250394 0.0147707 0.0133321
0.00217474 0.0144267 0.0134845
0.00184554 0.0140826 0.013637
0.00149313 0.0138071 0.0138942
0.00114144 0.0135312 0.014152
0.000789026 0.0132558 0.0144093
0.000436616 0.0129804 0.0146666
0.000107416 0.0126363 0.014819
-0.000198572 0.0122236 0.0148666
-0.000573477 0.0120163 0.0152292
-0.000880182 0.011604 0.0152763
-0.00120938 0.01126 0.0154287
-0.00158427 0.0110527 0.0157912
-0.00193596 0.0107768 0.016049
-0.00228837 0.0105013 0.0163063
-0.00268649 0.0103628 0.0167738
-0.0031071 0.0102924 0.0173467
-0.00371123 0.0107698 0.0187598
-0.00413185 0.0106994 0.0193326
-0.00446105 0.0103553 0.019485
-0.00479025 0.0100112 0.0196375
-0.00516513 0.00980396 0.02
-0.005563 0.00966207 0.0204606
-0.0058922 0.00931799 0.020613
-0.00619915 0.008909 0.020667
-0.00657354 0.00869511 0.0210157
-0.00687979 0.00828573 0.0210703
-0.00716354 0.0078081 0.0210194
-0.00751595 0.00753266 0.0212767
-0.00789033 0.00731877 0.0216254
-0.00824247 0.00703998 0.0218757
-0.00854873 0.0066306 0.0219303
-0.00885499 0.00622122 0.0219848
-0.00923007 0.00600772 0.022333
-0.00955927 0.00566364 0.0224854
-0.00972824 0.00484997 0.0219238
-0.0100806 0.00457448 0.022181
-0.0103866 0.0041618 0.0222287
-0.0106476 0.00361266 0.0220655
-0.0109304 0.00313128 0.0220083
-0.0111225 0.00237669 0.0215301
-0.0114517 0.00203261 0.0216825
-0.0118034 0.00175667 0.0219402
-0.0121101 0.00134444 0.0219874
-0.0124393 0.00100035 0.0221398
-0.012791 0.00072441 0.0223975
-0.0131434 0.000448976 0.0226548
-0.0135183 0.000241744 0.0230174
-0.0138707 -3.36904e-05 0.0232747
-0.0142224 -0.000309576 0.0235325
-0.014598 -0.00051636 0.0238946
-0.0149497 -0.000792244 0.0241524
-0.0153021 -0.00106768 0.0244097
-0.0156538 -0.00134356 0.0246675
-0.0160062 -0.00161905 0.0249247
-0.0163354 -0.00196314 0.0250771
-0.0166871 -0.00223902 0.0253349
-0.0170395 -0.00251446 0.0255921
-0.0173687 -0.00285854 0.0257446
-0.0176979 -0.00320263 0.025897
-0.0180271 -0.00354671 0.0260494
-0.0183563 -0.0038908 0.0262018
-0.0186623 -0.00430353 0.0262494
-0.018969 -0.00471582 0.0262965
-0.019275 -0.0051285 0.0263441
-0.0195817 -0.00554078 0.0263912
-0.0198877 -0.00595352 0.0264388
-0.0201712 -0.00643446 0.026381
-0.0204772 -0.00684719 0.0264286
-0.0207839 -0.00725948 0.0264756
-0.0210899 -0.00767221 0.0265232
-0.0214191 -0.0080163 0.0266756
-0.0217258 -0.00842858 0.0267227
-0.0220318 -0.00884132 0.0267702
-0.0223153 -0.0093222 0.0267125
-0.0226445 -0.00966629 0.026865
-0.022928 -0.0101473 0.0268071
-0.0232115 -0.0106282 0.0267494
-0.0235175 -0.0110409 0.0267969
-0.023801 -0.0115218 0.0267392
-0.0240845 -0.0120028 0.0266814
-0.0243447 -0.0125524 0.0265187
-0.0246282 -0.0130333 0.0264609
-0.0248885 -0.0135828 0.0262984
-0.0251488 -0.0141324 0.0261357
-0.0254323 -0.0146133 0.026078
-0.0256701 -0.0152311 0.02581
-0.0259304 -0.0157807 0.0256474
-0.0261682 -0.0163985 0.0253794
-0.0264517 -0.0168794 0.0253216
-0.0267345 -0.0173607 0.0252644
-0.0270412 -0.017773 0.0253115
-0.0273472 -0.0181857 0.025359
-0.0276307 -0.0186667 0.0253012
-0.027891 -0.0192163 0.0251386
-0.0281745 -0.0196972 0.0250808
-0.028435 -0.0202466 0.024918
-0.0286725 -0.0208645 0.0246503
-0.028933 -0.021414 0.0244875
-0.0291248 -0.0221688 0.0240096
-0.0293394 -0.0228552 0.0236367
-0.029577 -0.0234731 0.0233688
-0.0298604 -0.0239541 0.0233112
-0.0300979 -0.024572 0.0230434
-0.0303584 -0.0251215 0.0228806
-0.0305959 -0.0257394 0.0226128
-0.0308106 -0.0264258 0.0222399
-0.0310482 -0.0270437 0.0219721
-0.0311941 -0.0279354 0.0212841
-0.0314087 -0.0286218 0.0209112
-0.0316463 -0.0292397 0.0206434
-0.031861 -0.0299261 0.0202705
-0.0320298 -0.0307494 0.0196876
-0.0322215 -0.0315042 0.0192096
-0.0324132 -0.032259 0.0187318
-0.0325591 -0.0331508 0.0180437
-0.032728 -0.0339741 0.0174607
-0.0328281 -0.0350028 0.0165626
-0.032974 -0.0358945 0.0158745
-0.0332116 -0.0365124 0.0156067
-0.0332429 -0.0377465 0.0143934
-0.0330223 -0.0397336 0.0120244
-0.0325954 -0.0423367 0.00870994
-0.0328789 -0.0428177 0.0086522
0.0551884 0.049103 -0.0307429
0.0546295 0.0494438 -0.0295404
0.053818 0.050538 -0.0271827
0.0532362 0.0509473 -0.0258752
0.0526773 0.0512882 -0.0246726
0.0521644 0.051492 -0.0236801
0.0516285 0.0517643 -0.0225826
0.0511845 0.0517627 -0.0219052
0.0507174 0.0518296 -0.0211226
0.0502505 0.0518964 -0.0203401
0.0498065 0.0518948 -0.0196626
0.0493625 0.0518931 -0.0189852
0.0489184 0.0518915 -0.0183076
0.0484973 0.0518215 -0.0177353
0.0480759 0.0517515 -0.017163
0.0476553 0.0516811 -0.0165902
0.047234 0.0516111 -0.0160179
0.0468134 0.0515407 -0.0154451
0.0463921 0.0514707 -0.0148728
0.0459708 0.0514008 -0.0143005
0.0455727 0.0512622 -0.0138331
0.0451521 0.0511918 -0.0132602
0.0447308 0.0511218 -0.012688
0.0443327 0.0509832 -0.0122205
0.0439114 0.0509132 -0.0116483
0.0434907 0.0508428 -0.0110754
0.0430927 0.0507042 -0.010608
0.0426945 0.0505656 -0.0101405
0.0423189 0.0503588 -0.0097784
0.041944 0.0501515 -0.00941584
0.0415227 0.0500816 -0.00884351
0.0411246 0.049943 -0.00837611
0.0407497 0.0497357 -0.00801347
0.0403516 0.0495972 -0.00754598
0.0399767 0.0493899 -0.00718342
0.0396011 0.0491831 -0.00682131
0.039203 0.0490445 -0.00635383
0.0388281 0.0488372 -0.00599127
0.0384532 0.04863 -0.00562863
0.0380783 0.0484227 -0.00526598
0.0377258 0.0481473 -0.00500872
0.037351 0.04794 -0.00464616
0.0369986 0.0476646 -0.00438889
0.0366461 0.0473891 -0.00413162
0.0362712 0.0471819 -0.00376898
0.0359188 0.0469065 -0.00351172
0.0355671 0.0466306 -0.00325392
0.0351915 0.0464238 -0.00289189
0.0348166 0.0462165 -0.00252925
0.0344642 0.0459411 -0.00227198
0.0340893 0.0457339 -0.00190934
0.0337601 0.0453898 -0.00175691
0.0334309 0.0450457 -0.00160449
0.0330785 0.0447702 -0.0013473
0.0327493 0.0444261 -0.00119488
0.0323976 0.0441502 -0.000937083
0.0320684 0.0438061 -0.000784659
0.031716 0.0435307 -0.000527391
0.0313868 0.0431866 -0.000374967
0.0310344 0.0429112 -0.000117699
0.0307052 0.0425671 3.47259e-05
0.0303535 0.0422912 0.000292523
0.0300243 0.0419471 0.000444947
0.0296719 0.0416717 0.000702212
0.0293427 0.0413276 0.000854635
0.0290135 0.0409835 0.00100706
0.0286611 0.0407081 0.00126433
0.0283319 0.040364 0.00141675
0.0280259 0.0399513 0.00146433
0.0276967 0.0396072 0.00161676
0.0274132 0.0391262 0.00155897
0.0271304 0.0386449 0.0015017
0.0268237 0.0382326 0.00154875
0.0265177 0.0378199 0.00159642
0.0262117 0.0374072 0.001644
0.0258593 0.0371317 0.00190126
0.0255069 0.0368562 0.00215845
0.0251552 0.0365804 0.00241625
0.0248028 0.0363049 0.00267352
0.0244504 0.0360295 0.00293078
0.0241212 0.0356854 0.00308321
0.023792 0.0353413 0.00323563
0.0234628 0.0349972 0.00338806
0.02318 0.0345158 0.00333079
0.0228733 0.0341036 0.00337784
0.0225673 0.0336909 0.00342551
0.0222613 0.0332781 0.00347309
0.0219089 0.0330027 0.00373035
0.0215797 0.0326586 0.00388278
0.0212505 0.0323145 0.0040352
0.0208981 0.032039 0.00429239
0.0205921 0.0316264 0.00434005
0.0202629 0.0312823 0.00449248
0.0199569 0.0308695 0.00454006
0.0196502 0.0304573 0.00458711
0.0193442 0.0300445 0.00463469
0.019084 0.0294949 0.00447205
0.0188004 0.0290141 0.00441434
0.0184712 0.02867 0.00456676
0.018142 0.0283259 0.00471919
0.0178128 0.0279818 0.00487161
0.0174612 0.0277059 0.00512941
0.017132 0.0273618 0.00528183
0.0167564 0.027155 0.00564386
0.0164272 0.0268109 0.00579629
0.0160522 0.0266037 0.00615893
0.015723 0.0262596 0.00631135
0.0153938 0.0259155 0.00646378
0.0150647 0.0255714 0.0066162
0.0147122 0.025296 0.00687347
0.0143605 0.0250201 0.00713127
0.0139849 0.0248133 0.0074933
0.01361 0.024606 0.00785594
0.0132576 0.0243306 0.0081132
0.0129059 0.0240547 0.008371
0.0125535 0.0237793 0.00862827
0.0122011 0.0235038 0.00888553
0.0118494 0.023228 0.00914333
0.0115202 0.0228839 0.00929576
0.0112135 0.0224716 0.00934281
0.0108843 0.0221275 0.00949523
0.0105551 0.0217834 0.00964766
0.0102259 0.0214393 0.00980008
0.00987422 0.0211634 0.0100579
0.00949862 0.0209566 0.0104199
0.00914693 0.0206807 0.0106777
0.00879451 0.0204053 0.010935
0.0084421 0.0201299 0.0111922
0.00809041 0.019854 0.01145
0.007738 0.0195785 0.0117073
0.00738561 0.019303 0.0119645
0.00705641 0.018959 0.0121169
0.00672721 0.0186149 0.0122693
0.00637552 0.018339 0.0125271
0.00604632 0.0179949 0.0126796
0.0056939 0.0177195 0.0129368
0.0053647 0.0173754 0.0130893
0.0050355 0.0170313 0.0132417
0.00472952 0.0166186 0.0132893
0.00442282 0.0162063 0.0133363
0.00414001 0.0157249 0.0132791
0.00385652 0.015244 0.0132213
0.00352732 0.0148999 0.0133738
0.00319812 0.0145558 0.0135262
0.00286892 0.0142118 0.0136786
0.00251651 0.0139363 0.0139359
0.00216482 0.0136604 0.0141937
0.00181241 0.013385 0.0144509
0.00148321 0.0130409 0.0146034
0.00113082 0.0127654 0.0148606
0.000801621 0.0124213 0.015013
0.000495609 0.0120087 0.0150606
0.00018962 0.0115959 0.0151082
-0.000117086 0.0111836 0.0151553
-0.00046878 0.0109078 0.0154131
-0.000797979 0.0105637 0.0155655
-0.00117358 0.0103568 0.0159275
-0.00152527 0.0100809 0.0161853
-0.00187769 0.00980551 0.0164426
-0.00220689 0.00946143 0.016595
-0.00253608 0.00911734 0.0167474
-0.00286528 0.00877326 0.0168999
-0.00324019 0.00856602 0.0172625
-0.00356939 0.00822194 0.0174149
-0.00389859 0.00787785 0.0175673
-0.00420529 0.00746557 0.0176144
-0.00455699 0.00718968 0.0178722
-0.00486369 0.0067774 0.0179192
-0.0052386 0.00657016 0.0182819
-0.0055678 0.00622608 0.0184343
-0.00582808 0.00567649 0.0182717
-0.00618049 0.00540106 0.0185289
-0.00648648 0.00498832 0.0185765
-0.00679246 0.00457558 0.0186241
-0.00714488 0.00430015 0.0188814
-0.00749729 0.00402471 0.0191386
-0.00784898 0.00374883 0.0193964
-0.00815569 0.00333654 0.0194435
-0.00848489 0.00299246 0.0195959
-0.00883658 0.00271657 0.0198537
-0.00918899 0.00244114 0.020111
-0.00951819 0.00209705 0.0202634
-0.00987061 0.00182162 0.0205207
-0.0101998 0.00147754 0.0206731
-0.0105515 0.0012016 0.0209308
-0.0109039 0.000926164 0.0211881
-0.0112563 0.000650729 0.0214453
-0.011608 0.000374844 0.0217031
-0.0119836 0.000168063 0.0220653
-0.0123585 -3.91734e-05 0.0224279
-0.0127334 -0.000246463 0.0227905
-0.0130858 -0.000521894 0.0230477
-0.0134607 -0.000729129 0.0234104
-0.0138363 -0.000935913 0.0237725
-0.014188 -0.00121185 0.0240302
-0.0145636 -0.00141864 0.0243923
-0.0149153 -0.00169452 0.0246501
-0.0152677 -0.00196996 0.0249074
-0.0156194 -0.00224584 0.0251652
-0.0159718 -0.00252128 0.0254224
-0.016301 -0.00286536 0.0255749
-0.0166534 -0.00314085 0.025832
-0.0169826 -0.00348493 0.0259845
-0.0173118 -0.00382902 0.0261369
-0.017641 -0.0041731 0.0262893
-0.017947 -0.00458579 0.026337
-0.0182762 -0.00492987 0.0264894
-0.0185822 -0.00534261 0.026537
-0.0188889 -0.00575489 0.026584
-0.0191949 -0.00616763 0.0266316
-0.0195016 -0.00657991 0.0266787
-0.0198076 -0.00699265 0.0267262
-0.0200911 -0.00747353 0.0266685
-0.0204203 -0.00781761 0.026821
-0.0207263 -0.00823035 0.0268685
-0.0210323 -0.00864309 0.0269161
-0.0213158 -0.00912402 0.0268583
-0.0216218 -0.00953676 0.0269059
-0.0219285 -0.00994905 0.026953
-0.0222113 -0.0104304 0.0268958
-0.0224948 -0.0109113 0.026838
-0.0227783 -0.0113922 0.0267802
-0.0230843 -0.011805 0.0268278
-0.0233446 -0.0123545 0.0266652
-0.0236281 -0.0128355 0.0266074
-0.0238883 -0.013385 0.0264448
-0.0241711 -0.0138664 0.0263876
-0.0244314 -0.014416 0.026225
-0.0247149 -0.0148969 0.0261672
-0.0249752 -0.0154464 0.0260046
-0.0252355 -0.015996 0.025842
-0.0254726 -0.0166142 0.0255746
-0.0257561 -0.0170951 0.0255168
-0.0260396 -0.0175761 0.025459
-0.0263456 -0.0179888 0.0255066
-0.0266291 -0.0184697 0.0254489
-0.0268894 -0.0190193 0.0252862
-0.0271721 -0.0195007 0.025229
-0.0274557 -0.0199815 0.0251713
-0.0277159 -0.0205311 0.0250086
-0.0279537 -0.0211489 0.0247407
-0.028214 -0.0216985 0.0245781
-0.0284279 -0.0223853 0.0242058
-0.0285968 -0.0232085 0.0236228
-0.0288796 -0.0236899 0.0235656
-0.0291399 -0.0242395 0.0234029
-0.0294002 -0.024789 0.0232404
-0.029638 -0.0254068 0.0229724
-0.029875 -0.026025 0.022705
-0.0301121 -0.0266432 0.0224376
-0.0303499 -0.027261 0.0221696
-0.0305413 -0.028016 0.0216919
-0.0307327 -0.028771 0.0212143
-0.0309698 -0.0293893 0.0209469
-0.0311612 -0.0301443 0.0204692
-0.03133 -0.0309675 0.0198862
-0.0315214 -0.0317226 0.0194086
-0.0317125 -0.0324778 0.0189312
-0.0319039 -0.0332328 0.0184536
-0.0320724 -0.0340563 0.0178709
-0.0321719 -0.0350853 0.0169732
-0.0322944 -0.0360459 0.0161805
-0.0324858 -0.0368009 0.0157029
-0.0325164 -0.0380354 0.0144902
-0.0323174 -0.0399547 0.0122273
-0.0322792 -0.0413947 0.0106995
-0.0321031 -0.0432456 0.00854171
0.0554505 0.0488794 -0.0298614
0.0546605 0.049906 -0.0276099
0.0541014 0.050247 -0.0264076
0.0535422 0.050588 -0.0252054
0.0530056 0.0508607 -0.0241084
0.0525154 0.0509962 -0.0232211
0.0519788 0.051269 -0.0221242
0.0515342 0.0512677 -0.0214471
0.051044 0.0514032 -0.0205598
0.0506002 0.0514014 -0.0198822
0.0501557 0.0514001 -0.0192051
0.049688 0.0514674 -0.0184232
0.0492667 0.0513974 -0.0178509
0.0488454 0.0513274 -0.0172787
0.0484472 0.0511888 -0.0168112
0.0480035 0.051187 -0.0161337
0.0475821 0.051117 -0.0155613
0.0471608 0.0510471 -0.0149891
0.046762 0.0509089 -0.0145222
0.0463407 0.0508389 -0.0139499
0.0458969 0.0508371 -0.0132723
0.0454981 0.050699 -0.0128054
0.0450768 0.050629 -0.0122332
0.0446561 0.0505586 -0.0116603
0.0442573 0.0504204 -0.0111934
0.043836 0.0503504 -0.0106212
0.0434379 0.0502118 -0.0101537
0.0430398 0.0500732 -0.00968628
0.0426874 0.0497978 -0.00942902
0.0422893 0.0496591 -0.00896161
0.0418912 0.0495205 -0.00849413
0.0414924 0.0493823 -0.00802726
0.0411175 0.0491751 -0.00766462
0.0407426 0.0489678 -0.00730205
0.0403438 0.0488297 -0.0068351
0.0399689 0.0486224 -0.00647254
0.0395708 0.0484838 -0.00600506
0.0391951 0.048277 -0.00564294
0.0388203 0.0480697 -0.00528038
0.0384678 0.0477943 -0.00502312
0.0380922 0.0475875 -0.00466108
0.0377405 0.0473116 -0.00440329
0.0373649 0.0471048 -0.00404118
0.0370125 0.0468294 -0.00378391
0.0366376 0.0466221 -0.00342135
0.0362852 0.0463467 -0.00316408
0.0359103 0.0461394 -0.00280144
0.0355347 0.0459326 -0.00243941
0.0351598 0.0457253 -0.00207677
0.0348074 0.0454499 -0.0018195
0.034455 0.0451745 -0.00156223
0.0341258 0.0448304 -0.00140981
0.0337741 0.0445544 -0.00115209
0.0334449 0.0442104 -0.000999669
0.0331157 0.0438663 -0.000847245
0.0327865 0.0435222 -0.00069482
0.0324341 0.0432468 -0.000437557
0.0321049 0.0429027 -0.000285133
0.0317525 0.0426272 -2.78642e-05
0.0314233 0.0422832 0.00012456
0.0310709 0.0420077 0.000381828
0.0307192 0.0417318 0.000639626
0.03039 0.0413878 0.00079205
0.0300376 0.0411123 0.00104924
0.0297084 0.0407682 0.00120166
0.0293792 0.0404241 0.00135409
0.02905 0.04008 0.00150651
0.0287208 0.0397359 0.00165893
0.0284148 0.0393232 0.00170659
0.0280856 0.0389792 0.00185902
0.0278021 0.0384982 0.00180123
0.0275193 0.0380168 0.00174397
0.0272126 0.0376046 0.0017911
0.0269298 0.0371232 0.00173383
0.0266006 0.0367791 0.00188626
0.0262482 0.0365037 0.00214352
0.025919 0.0361596 0.00229595
0.0255441 0.0359523 0.00265851
0.0252149 0.0356082 0.00281093
0.0248625 0.0353328 0.0030682
0.0245333 0.0349887 0.00322062
0.0242273 0.034576 0.00326821
0.0239206 0.0341638 0.00331534
0.0236146 0.033751 0.00336292
0.0232854 0.0334069 0.00351534
0.0229562 0.0330628 0.00366777
0.022627 0.0327188 0.00382019
0.0222746 0.0324433 0.00407746
0.0219454 0.0320992 0.00422988
0.0216162 0.0317552 0.00438231
0.021287 0.0314111 0.00453473
0.0209578 0.031067 0.00468715
0.0206286 0.0307229 0.00483958
0.0203226 0.0303102 0.00488716
0.0200398 0.0298288 0.0048299
0.0197563 0.0293478 0.00477211
0.0194728 0.028867 0.00471439
0.0191668 0.0284542 0.00476197
0.0188609 0.0280415 0.00480956
0.0185317 0.0276974 0.00496198
0.0181792 0.027422 0.00521924
0.01785 0.0270779 0.00537167
0.0174976 0.0268025 0.00562894
0.0171684 0.0264584 0.00578136
0.0168167 0.0261825 0.00603916
0.0164644 0.025907 0.00629635
0.0161352 0.0255629 0.00644877
0.0158059 0.0252188 0.0066012
0.0154535 0.0249434 0.00685846
0.0151018 0.0246675 0.00711626
0.0147494 0.0243921 0.00737353
0.014397 0.0241166 0.00763079
0.0140446 0.0238412 0.00788806
0.0136697 0.0236339 0.00825062
0.0133173 0.0233585 0.00850789
0.0129424 0.0231512 0.00887053
0.0126132 0.0228072 0.00902295
0.0122608 0.0225317 0.00928014
0.0119316 0.0221876 0.00943257
0.0116024 0.0218435 0.00958499
0.0112732 0.0214994 0.00973741
0.010944 0.0211553 0.00988984
0.0105916 0.0208799 0.0101471
0.0102167 0.0206727 0.0105097
0.0098643 0.0203972 0.010767
0.00951191 0.0201217 0.0110242
0.00915949 0.0198463 0.0112815
0.00883029 0.0195022 0.0114339
0.0084786 0.0192263 0.0116917
0.00812619 0.0189509 0.011949
0.00777378 0.0186755 0.0122062
0.00742137 0.0184 0.0124635
0.00709217 0.0180559 0.0126159
