-0.086491999999999999 -0.35321999999999998 -0.047232000000000003 1.6589999999999999e-14 1 1.4069e-14
-0.10559 -0.35144999999999998 -0.063101000000000004 -0.096365000000000006 0.17615 0.97963999999999996
-0.079135999999999998 -0.42071999999999998 -0.063101000000000004 -7.2980000000000005e-16 -1.0506e-15 1
-0.095850000000000005 -0.37769000000000003 -0.028289000000000002 -0.0097614999999999993 0.1343 0.99089000000000005
-0.069109000000000004 -0.36858000000000002 -0.031319 -3.9659000000000001e-05 0.31552999999999998 0.94891999999999999
-0.10990999999999999 -0.38052000000000002 -0.038705999999999997 -1 -3.1621999999999999e-16 1.3847e-15
-0.055558000000000003 -0.37364999999999998 -0.029635000000000002 1.8768999999999999e-05 0.31556000000000001 0.94889999999999997
-0.060179000000000003 -0.35321999999999998 -0.039616999999999999 -1.5652000000000001e-14 1 -5.4453000000000003e-15
-0.065180000000000002 -0.35321999999999998 -0.051375999999999998 -8.4373000000000001e-15 1 -6.4438999999999997e-15
-0.079850000000000004 -0.35321999999999998 -0.037310000000000003 0.020490000000000001 0.99895999999999996 0.040828000000000003
-0.073341000000000003 -0.35321999999999998 -0.061809999999999997 3.2161000000000002e-14 1 -2.3138e-14
-0.064564999999999997 -0.40311000000000002 -0.058345000000000001 9.6065000000000002e-15 -1 2.8829e-15
-0.042285000000000003 -0.39800999999999997 -0.036669 0.98723000000000005 0.054774000000000003 0.14956
-0.10086000000000001 -0.35321999999999998 -0.054747999999999998 1.5777000000000001e-14 1 1.2964e-14
-0.042285000000000003 -0.38091000000000003 -0.042103000000000002 1 -1.3626e-14 -6.3657000000000001e-15
-0.052128000000000001 -0.36868000000000001 -0.031285 -6.1059999999999996e-06 0.31556000000000001 0.94891000000000003
-0.042751999999999998 -0.40311000000000002 -0.060449999999999997 0.10256 -0.99443000000000004 -0.024167000000000001
-0.10990999999999999 -0.36198000000000002 -0.050015999999999998 -1 2.2300000000000002e-16 -1.8861e-15
-0.085713999999999999 -0.40311000000000002 -0.037685000000000003 -4.4519000000000004e-16 -1 8.1050999999999999e-15
-0.042285000000000003 -0.39839999999999998 -0.053289999999999997 1 6.1662000000000005e-16 6.7675999999999998e-16
-0.046531999999999997 -0.35321999999999998 -0.055898999999999997 5.4396999999999996e-15 1 2.0087000000000001e-15
-0.042285000000000003 -0.36457000000000001 -0.056544999999999998 1 3.1918999999999998e-17 -3.3562999999999999e-16
-0.10990999999999999 -0.37081999999999998 -0.040094999999999999 -1 -1.2490999999999999e-15 7.2993999999999998e-16
-0.082847000000000004 -0.35321999999999998 -0.051746 3.8604e-14 1 1.7735999999999999e-14
-0.10891000000000001 -0.35321999999999998 -0.041257000000000002 -0.14072000000000001 0.98655999999999999 -0.083062999999999998
-0.10990999999999999 -0.37193999999999999 -0.060166999999999998 -1 -1.4202000000000001e-15 -2.1688999999999998e-15
-0.078636999999999999 -0.35321999999999998 -0.055952000000000002 -4.1908000000000002e-14 1 2.2684e-14
-0.10990999999999999 -0.36792000000000002 -0.032545999999999999 -1 8.7799999999999997e-16 -1.6359e-15
-0.10458000000000001 -0.35321999999999998 -0.038632 -1.8986999999999999e-15 1 5.6226000000000003e-15
-0.059885000000000001 -0.39907999999999999 -0.035089000000000002 -3.4481000000000001e-06 -0.31556000000000001 0.94891000000000003
-0.10990999999999999 -0.37806000000000001 -0.054919000000000003 -1 5.2549999999999996e-16 -2.7950000000000001e-16
-0.074817999999999996 -0.41778999999999999 -0.063101000000000004 -1.3801e-16 6.5476999999999999e-16 1
-0.050296 -0.40311000000000002 -0.054561999999999999 1.1488000000000001e-15 -1 -6.6122999999999998e-15
-0.042285000000000003 -0.35965999999999998 -0.059142 1 6.0195000000000005e-16 6.8984999999999996e-16
-0.081054000000000001 -0.40311000000000002 -0.043865000000000001 -5.7718999999999998e-15 -1 -8.1617999999999994e-15
-0.061690000000000002 -0.40311000000000002 -0.059125999999999998 7.2455999999999992e-15 -1 5.7321999999999997e-16
-0.091676999999999995 -0.35321999999999998 -0.050473999999999998 1.0133999999999999e-14 1 4.5299999999999999e-15
-0.10990999999999999 -0.37966 -0.031856000000000002 -1 -2.4857000000000001e-15 -8.9036999999999991e-16
-0.069804000000000005 -0.39611000000000002 -0.034099999999999998 -2.8110999999999999e-05 -0.31553999999999999 0.94891000000000003
-0.10990999999999999 -0.39834999999999998 -0.048279000000000002 -1 -1.3771e-15 1.53e-16
-0.10748000000000001 -0.37339 -0.029718999999999999 2.1571999999999999e-05 0.31557000000000002 0.94889999999999997
-0.073106000000000004 -0.35321999999999998 -0.051437999999999998 9.0845e-15 1 1.7409999999999999e-14
-0.027986 -0.36448000000000003 -0.063101000000000004 -5.6558999999999999e-16 -6.5568000000000004e-16 1
-0.086680999999999994 -0.38571 -0.030640000000000001 -2.7609000000000001e-06 -0.3155 0.94893000000000005
-0.096184000000000006 -0.35321999999999998 -0.041590000000000002 -4.1681e-15 1 -6.8001000000000002e-15
-0.082542000000000004 -0.40311000000000002 -0.049817 -2.7862000000000002e-15 -1 -6.2344000000000003e-16
-0.097070000000000004 -0.35321999999999998 -0.057862999999999998 -5.3502e-15 1 -2.4157000000000002e-15
-0.049265999999999997 -0.36574000000000001 -0.032265000000000002 2.1909e-05 0.31553999999999999 0.94891000000000003
-0.10732 -0.40311000000000002 -0.063 -0.024420000000000001 -0.79025000000000001 0.61229999999999996
-0.10334 -0.40311000000000002 -0.048017999999999998 1.2236e-15 -1 1.6422000000000001e-14
-0.065359 -0.35321999999999998 -0.047803999999999999 4.7222999999999998e-16 1 2.0915000000000002e-15
-0.11948 -0.40738000000000002 -0.063101000000000004 -2.6626999999999999e-17 -9.3935999999999994e-16 1
-0.050744999999999998 -0.36153000000000002 -0.033665 9.3574999999999998e-06 0.31552999999999998 0.94891999999999999
-0.095865000000000006 -0.40311000000000002 -0.057228000000000001 1.6603999999999999e-14 -1 2.5619999999999999e-14
-0.12038 -0.37087999999999999 -0.063101000000000004 5.0068999999999996e-16 5.1406000000000001e-16 1
-0.098201999999999998 -0.35321999999999998 -0.039225999999999997 -1.2301e-14 1 -1.8076000000000001e-14
-0.042285000000000003 -0.38913999999999999 -0.060032000000000002 0.99712000000000001 -0.052852000000000003 0.054466000000000001
-0.10006 -0.35321999999999998 -0.045990000000000003 2.3691000000000001e-14 1 4.9505000000000003e-15
-0.073043999999999998 -0.36847999999999997 -0.031350999999999997 2.2765999999999999e-05 0.31546999999999997 0.94894000000000001
-0.047985 -0.40311000000000002 -0.062024999999999997 0.026870999999999999 -0.99729000000000001 0.068450999999999998
-0.079051999999999997 -0.35321999999999998 -0.042645000000000002 1.0540999999999999e-15 1 -6.3645e-15
-0.045234999999999997 -0.40311000000000002 -0.038599000000000001 4.4507999999999997e-15 -1 3.9011000000000002e-15
-0.084689 -0.35321999999999998 -0.038866999999999999 -1.0492e-15 1 -1.2667e-14
-0.064505000000000007 -0.35360999999999998 -0.036297999999999997 0.026709 0.66635 0.74516000000000004
-0.10684 -0.35326999999999997 -0.036410999999999999 -0.16048000000000001 0.96103000000000005 0.22511999999999999
-0.081596000000000002 -0.40167999999999998 -0.035951999999999998 -0.18951999999999999 -0.34387000000000001 0.91969000000000001
-0.089469999999999994 -0.40834999999999999 -0.063101000000000004 0.054011999999999998 0.092231999999999995 0.99426999999999999
-0.058402999999999997 -0.35321999999999998 -0.058598999999999998 2.7161999999999998e-15 1 2.0836e-14
-0.083284999999999998 -0.36915999999999999 -0.031126000000000001 -1.1562e-05 0.31553999999999999 0.94891000000000003
-0.10045999999999999 -0.35321999999999998 -0.044373999999999997 -0 1 -0
-0.042285000000000003 -0.37437999999999999 -0.045837000000000003 1 -9.9237999999999997e-16 -1.745e-15
-0.054668000000000001 -0.35321999999999998 -0.061025999999999997 -2.835e-14 1 -4.7645999999999998e-14
-0.067321000000000006 -0.37456 -0.029329999999999998 1.2089999999999999e-05 0.31555 0.94891000000000003
-0.072483000000000006 -0.40311000000000002 -0.042818000000000002 -4.6382999999999997e-15 -1 -1.6045999999999999e-14
-0.048342999999999997 -0.36886999999999998 -0.031222 3.3853999999999998e-06 0.31552000000000002 0.94891999999999999
-0.10990999999999999 -0.40011000000000002 -0.053802999999999997 -0.99358999999999997 0.11254 -0.010763999999999999
-0.081793000000000005 -0.35321999999999998 -0.049814999999999998 1.9078999999999999e-14 1 -2.6780999999999999e-15
-0.055080999999999998 -0.35321999999999998 -0.038148000000000001 4.0549999999999998e-15 1 -1.8655e-14
-0.042285000000000003 -0.38489000000000001 -0.031855000000000001 0.94867000000000001 -0.15390999999999999 0.27628000000000003
-0.078328999999999996 -0.35321999999999998 -0.051182999999999999 8.0411000000000004e-15 1 5.9654000000000003e-15
-0.042285000000000003 -0.37898999999999999 -0.032601999999999999 1 -9.2066000000000005e-16 7.6182000000000002e-16
-0.10643 -0.38422000000000001 -0.030145999999999999 2.7172999999999998e-06 -0.31552999999999998 0.94891999999999999
-0.054135999999999997 -0.35321999999999998 -0.051479999999999998 -1.7795000000000001e-14 1 -1.2871e-15
-0.042285000000000003 -0.37608000000000003 -0.029618999999999999 0.85087999999999997 0.25849 0.45737
-0.088815000000000005 -0.36864999999999998 -0.031295000000000003 6.6478999999999998e-05 0.3155 0.94893000000000005
-0.050952999999999998 -0.39132 -0.032507000000000001 2.0707999999999999e-05 -0.31552000000000002 0.94891999999999999
-0.042285000000000003 -0.37173 -0.032965000000000001 1 -7.0609e-16 -1.6994000000000001e-16
-0.095846000000000001 -0.35321999999999998 -0.051567000000000002 1.8763e-14 1 6.1603000000000003e-15
-0.087445999999999996 -0.40311000000000002 -0.055330999999999998 1.1083e-14 -1 -1.8557999999999999e-14
-0.042285000000000003 -0.40278000000000003 -0.048383000000000002 0.95753999999999995 -0.28783999999999998 -0.016376000000000002
-0.065637000000000001 -0.40311000000000002 -0.039585000000000002 3.1811000000000002e-14 -1 9.8285999999999996e-16
-0.10990999999999999 -0.36551 -0.061827 -0.99365999999999999 0.026425000000000001 0.10929
-0.093436000000000005 -0.35321999999999998 -0.045851999999999997 1.3791e-14 1 -1.524e-14
-0.046952000000000001 -0.35321999999999998 -0.040148999999999997 3.6470000000000001e-14 1 -3.5500999999999998e-15
-0.052580000000000002 -0.40311000000000002 -0.053610999999999999 1.5516e-15 -1 -6.9941999999999999e-15
-0.10990999999999999 -0.35726000000000002 -0.046566999999999997 -1 -1.5777e-15 7.8560999999999996e-16
-0.10489999999999999 -0.36454999999999999 -0.032661000000000003 8.1883999999999994e-06 0.31552999999999998 0.94891000000000003
-0.050046 -0.40311000000000002 -0.044568000000000003 9.5683000000000005e-15 -1 5.5455000000000001e-16
-0.084425 -0.35683999999999999 -0.035223999999999998 -1.0669000000000001e-05 0.31551000000000001 0.94891999999999999
-0.062452000000000001 -0.40311000000000002 -0.045990000000000003 -5.7389000000000002e-15 -1 -5.2922000000000003e-15
-0.072291999999999995 -0.40311000000000002 -0.049284000000000001 -5.0331999999999998e-15 -1 7.4054e-16
-0.081220000000000001 -0.40311000000000002 -0.053481000000000001 -2.3370999999999999e-14 -1 4.2139000000000001e-15
-0.042285000000000003 -0.39016000000000001 -0.033702000000000003 0.99605999999999995 -0.033931000000000003 0.081899
-0.054267000000000003 -0.35715000000000002 -0.035119999999999998 -1.4121000000000001e-05 0.31557000000000002 0.94889999999999997
-0.042285000000000003 -0.39377000000000001 -0.059138000000000003 1 1.6115000000000001e-15 1.6883e-16
-0.043184 -0.35321999999999998 -0.039948999999999998 0.11921 0.99263999999999997 0.021475000000000001
-0.081418000000000004 -0.40311000000000002 -0.054829000000000003 -6.7979000000000003e-15 -1 -2.6907000000000001e-15
-0.10954999999999999 -0.38607999999999998 -0.030762999999999999 -0.64380999999999999 -0.20416999999999999 0.73745000000000005
-0.10618 -0.35321999999999998 -0.041216999999999997 2.1329e-15 1 9.7496000000000005e-15
-0.095838999999999994 -0.40198 -0.036053000000000002 0.018253999999999999 -0.24560000000000001 0.96919999999999995
-0.042285000000000003 -0.38002999999999998 -0.033401 1 -1.7271e-16 -1.3011999999999999e-15
-0.057433999999999999 -0.35321999999999998 -0.039989999999999998 3.2281000000000001e-15 1 -5.1867e-16
-0.10990999999999999 -0.37717000000000001 -0.044839999999999998 -1 -2.9649999999999999e-15 -1.031e-15
-0.1062 -0.42022999999999999 -0.063101000000000004 4.1787000000000002e-16 -3.1312e-16 1
-0.068613999999999994 -0.41938999999999999 -0.063101000000000004 1.3391999999999999e-15 -1.8338000000000001e-16 1
-0.054177999999999997 -0.38330999999999998 -0.029842 6.7757999999999996e-07 -0.31552999999999998 0.94891999999999999
-0.10990999999999999 -0.36473 -0.058848999999999999 -1 -1.4972e-15 9.0695e-17
-0.060408000000000003 -0.35321999999999998 -0.052644000000000003 5.0411000000000002e-16 1 3.3283999999999998e-15
-0.10990999999999999 -0.36557000000000001 -0.038086000000000002 -1 3.0635999999999999e-15 3.9301999999999998e-15
-0.10804999999999999 -0.35321999999999998 -0.042699000000000001 -9.4817999999999996e-16 1 1.4444999999999999e-14
-0.061710000000000001 -0.36735000000000001 -0.031729 -2.2558e-05 0.31548999999999999 0.94893000000000005
-0.046788000000000003 -0.41471000000000002 -0.063101000000000004 1.0601e-16 4.3560999999999999e-16 1
-0.080726000000000006 -0.4042 -0.063101000000000004 -0.43769999999999998 -0.65203999999999995 0.61907999999999996
-0.045706999999999998 -0.36575999999999997 -0.032257000000000001 8.0577000000000008e-06 0.31552999999999998 0.94891999999999999
-0.11964 -0.39352999999999999 -0.063101000000000004 -4.3314000000000002e-16 7.6093000000000002e-16 1
-0.10388 -0.37474000000000002 -0.029270999999999998 3.0256e-05 0.31555 0.94891000000000003
-0.048517999999999999 -0.34483999999999998 -0.063101000000000004 -1.0391e-16 3.8641999999999998e-16 1
-0.099932000000000007 -0.35321999999999998 -0.042146999999999997 3.9126999999999999e-15 1 3.9802999999999996e-15
-0.093683000000000002 -0.35321999999999998 -0.056483999999999999 -1.1307e-14 1 3.5929999999999998e-15
-0.095312999999999995 -0.36659000000000003 -0.031980000000000001 -0.00011297 0.31556000000000001 0.94889999999999997
-0.081187999999999996 -0.39263999999999999 -0.032946999999999997 1.6744e-06 -0.31553999999999999 0.94891000000000003
-0.043182999999999999 -0.37941000000000003 -0.028546999999999999 0.53230999999999995 -0.19631999999999999 0.82347000000000004
-0.083153000000000005 -0.37807000000000002 -0.028164000000000002 -0.0023741999999999999 -0.055389000000000001 0.99846000000000001
-0.042285000000000003 -0.37198999999999999 -0.034835999999999999 1 -0 -0
-0.097167000000000003 -0.40311000000000002 -0.061203 -9.0127999999999993e-16 -1 -1.8158999999999999e-14
-0.050155999999999999 -0.38179999999999997 -0.029340000000000001 -4.0262999999999997e-05 -0.31561 0.94889000000000001
-0.10990999999999999 -0.37268000000000001 -0.048993000000000002 -1 -1.5375e-17 8.8841999999999995e-16
-0.069536000000000001 -0.35321999999999998 -0.050858 -6.9321e-15 1 2.3277e-14
-0.060415999999999997 -0.35321999999999998 -0.040855000000000002 -1.8801999999999999e-14 1 -5.7766e-15
-0.099945999999999993 -0.35321999999999998 -0.046487000000000001 5.5260000000000003e-15 1 9.2332999999999996e-15
-0.058054000000000001 -0.40311000000000002 -0.041748 -5.4387999999999999e-15 -1 -3.6271999999999999e-14
-0.096206 -0.40311000000000002 -0.036739000000000001 0.025618999999999999 -0.82272000000000001 0.56788000000000005
-0.071609000000000006 -0.40311000000000002 -0.050999000000000003 -4.1642000000000001e-15 -1 -8.2042999999999996e-15
-0.074732999999999994 -0.40311000000000002 -0.044856 -1.2519e-14 -1 -3.0251e-14
-0.052053000000000002 -0.39831 -0.034833000000000003 -1.4511e-05 -0.31552999999999998 0.94891000000000003
-0.10990999999999999 -0.35635 -0.055620000000000003 -1 -9.4508999999999994e-16 -1.0937e-15
-0.055107000000000003 -0.35321999999999998 -0.036776999999999997 -0.078319 0.83469000000000004 0.54513
-0.042285000000000003 -0.38449 -0.038684000000000003 1 -7.2439000000000002e-16 1.1338999999999999e-15
-0.081129999999999994 -0.40311000000000002 -0.056006 1.0197000000000001e-14 -1 2.9156e-16
-0.10174 -0.35321999999999998 -0.051875999999999999 -7.0481999999999998e-16 1 -8.1281000000000005e-15
-0.10990999999999999 -0.36848999999999998 -0.049105999999999997 -1 -1.3774000000000001e-15 -1.616e-15
-0.10150000000000001 -0.38607000000000002 -0.030762000000000001 2.3879e-06 -0.31557000000000002 0.94889999999999997
-0.10273 -0.35321999999999998 -0.061005999999999998 -1.5651000000000001e-14 1 2.8545000000000001e-15
-0.085404999999999995 -0.40311000000000002 -0.038080000000000003 -5.7509999999999998e-15 -1 1.4987000000000002e-14
-0.10874 -0.38494 -0.030387000000000001 -0.34665000000000001 -0.41599999999999998 0.8407
-0.089052000000000006 -0.35321999999999998 -0.042930999999999997 -1.0342e-14 1 4.5866e-15
-0.042285000000000003 -0.37507000000000001 -0.052346999999999998 1 -2.9055000000000001e-16 -4.7287000000000003e-16
-0.078329999999999997 -0.35321999999999998 -0.039862000000000002 1.0297e-14 1 -1.5008000000000001e-14
-0.088495000000000004 -0.33227000000000001 -0.063101000000000004 -4.4158999999999999e-16 -4.0260000000000002e-16 1
-0.044433 -0.35321999999999998 -0.048876999999999997 1.6723e-15 1 -7.9131999999999993e-15
-0.10990999999999999 -0.38028000000000001 -0.036013999999999997 -1 -2.3594e-15 -3.1857999999999999e-16
-0.042285000000000003 -0.35476999999999997 -0.044442000000000002 0.99607999999999997 0.087339 0.014352999999999999
-0.10956 -0.35321999999999998 -0.045692999999999998 -0.22625000000000001 0.97001000000000004 0.088832999999999995
-0.042285000000000003 -0.36144999999999999 -0.044208999999999998 1 -1.0087e-15 -6.7620000000000002e-16
-0.12377000000000001 -0.39877000000000001 -0.063101000000000004 -9.1015999999999998e-16 -5.9259000000000003e-16 1
-0.042285000000000003 -0.37009999999999998 -0.033570000000000003 1 -1.4429e-15 -4.7405999999999996e-16
-0.10351 -0.35321999999999998 -0.052274000000000001 -1.3168999999999999e-14 1 -1.0845e-14
-0.069459000000000007 -0.35321999999999998 -0.042376999999999998 1.0199000000000001e-15 1 6.2133000000000002e-15
-0.10990999999999999 -0.38521 -0.057063000000000003 -1 1.5006e-15 -2.0005999999999998e-15
-0.11649 -0.35041 -0.063101000000000004 1.1514000000000001e-16 -1.4858e-15 1
-0.028858000000000002 -0.36693999999999999 -0.063101000000000004 2.206e-16 -9.4995999999999996e-16 1
-0.049950000000000001 -0.40676000000000001 -0.063101000000000004 0.13955000000000001 0.53129000000000004 0.83562000000000003
-0.089527999999999996 -0.40311000000000002 -0.040613000000000003 -5.3276e-15 -1 3.8737000000000002e-16
-0.083141000000000007 -0.40311000000000002 -0.049827000000000003 9.9730999999999995e-15 -1 3.6837999999999996e-15
-0.042285000000000003 -0.36270000000000002 -0.036022999999999999 1 -1.9178000000000001e-16 -1.2554e-15
-0.10281 -0.40311000000000002 -0.037594000000000002 7.4345999999999998e-15 -1 5.2662999999999996e-15
-0.065321000000000004 -0.35321999999999998 -0.048756000000000001 1.3716999999999999e-14 1 1.4534000000000001e-14
-0.10990999999999999 -0.39349000000000001 -0.044278999999999999 -1 4.6196999999999999e-16 -2.2889000000000002e-15
-0.060526000000000003 -0.40311000000000002 -0.055967999999999997 -2.2555000000000001e-14 -1 4.5676000000000001e-14
-0.060122000000000002 -0.40311000000000002 -0.062050000000000001 0.0074792000000000001 -0.97816000000000003 0.20773
-0.10990999999999999 -0.38799 -0.054767000000000003 -1 -1.5021000000000001e-15 -3.1041000000000001e-15
-0.076254000000000002 -0.39745999999999998 -0.034549000000000003 7.3151999999999994e-05 -0.31551000000000001 0.94891999999999999
-0.095884999999999998 -0.35321999999999998 -0.041646000000000002 1.2080000000000001e-14 1 9.7893999999999993e-15
-0.042285000000000003 -0.36864000000000002 -0.035140999999999999 1 4.4127000000000002e-16 -1.4111e-15
-0.060068999999999997 -0.36164000000000002 -0.033625000000000002 1.9851999999999999e-05 0.31552999999999998 0.94891000000000003
-0.050410999999999997 -0.41549999999999998 -0.063101000000000004 4.3565999999999998e-17 7.6237e-16 1
-0.056619999999999997 -0.34237000000000001 -0.063101000000000004 2.5275999999999999e-16 6.6429000000000003e-18 1
-0.054672999999999999 -0.38693 -0.031047999999999999 2.0814000000000001e-05 -0.31553999999999999 0.94891000000000003
-0.029930999999999999 -0.36574000000000001 -0.063101000000000004 -2.015e-16 8.9259000000000002e-17 1
-0.080117999999999995 -0.36825999999999998 -0.031426000000000003 4.685e-06 0.31555 0.94891000000000003
-0.093732999999999997 -0.41958000000000001 -0.063101000000000004 6.0622000000000002e-16 -2.241e-17 1
-0.055794000000000003 -0.40311000000000002 -0.057993000000000003 4.8223999999999996e-15 -1 1.0197e-16
-0.10990999999999999 -0.35605999999999999 -0.050123000000000001 -1 -1.9610999999999999e-15 -2.6387000000000001e-15
-0.10448 -0.37634000000000001 -0.028736999999999999 0.031366999999999999 0.27249000000000001 0.96165
-0.10990999999999999 -0.35820000000000002 -0.051732 -1 6.8955000000000003e-16 7.2862999999999997e-16
-0.10172 -0.35487000000000002 -0.035878 0.10722 0.40579999999999999 0.90764999999999996
-0.045689 -0.35321999999999998 -0.059819999999999998 -8.5757000000000005e-16 1 1.0543999999999999e-14
-0.042285000000000003 -0.35876999999999998 -0.042777000000000003 1 1.6838000000000001e-15 -1.0789e-15
-0.042285000000000003 -0.36014000000000002 -0.041890999999999998 1 6.2298000000000002e-16 8.2559e-17
-0.025368999999999999 -0.34991 -0.063101000000000004 8.2814999999999996e-16 1.0794e-17 1
-0.070834999999999995 -0.40311000000000002 -0.053702 -2.0059999999999999e-14 -1 -1.0183e-14
-0.061898000000000002 -0.40311000000000002 -0.062380999999999999 -0.048154000000000002 -0.87517999999999996 0.48139999999999999
-0.045109000000000003 -0.35188000000000003 -0.063101000000000004 -0.051131000000000003 0.057175999999999998 0.99704999999999999
-0.04546 -0.40566000000000002 -0.063101000000000004 0.36431000000000002 -0.13467999999999999 0.92149000000000003
-0.056492000000000001 -0.40311000000000002 -0.051200000000000002 -1.4761000000000001e-14 -1 2.0014000000000001e-14
-0.073974999999999999 -0.37441999999999998 -0.029377 -4.6213000000000001e-06 0.31547999999999998 0.94893000000000005
-0.060506999999999998 -0.37530000000000002 -0.029086000000000001 -3.9149000000000001e-05 0.31552000000000002 0.94891999999999999
-0.050847999999999997 -0.37467 -0.029294000000000001 1.9428000000000001e-05 0.31553999999999999 0.94891000000000003
-0.10095 -0.38491999999999998 -0.030380000000000001 -4.0836000000000002e-06 -0.31556000000000001 0.94891000000000003
-0.057674000000000003 -0.35321999999999998 -0.055594999999999999 -8.8963000000000006e-15 1 1.0238999999999999e-14
-0.042285000000000003 -0.39046999999999998 -0.035027000000000003 1 8.5244999999999998e-16 3.8430999999999998e-16
-0.05781 -0.40311000000000002 -0.056493000000000002 1.1551e-16 -1 -1.2735e-14
-0.056930000000000001 -0.39717000000000002 -0.034452999999999998 -6.9989999999999999e-05 -0.31552999999999998 0.94891999999999999
-0.10990999999999999 -0.38912000000000002 -0.058792999999999998 -1 6.1086000000000003e-16 -7.9578999999999994e-15
-0.095529000000000003 -0.34370000000000001 -0.063101000000000004 -2.5478999999999998e-15 -2.4313e-17 1
-0.056774999999999999 -0.40311000000000002 -0.044839999999999998 1.538e-14 -1 1.5643e-15
-0.077928999999999998 -0.40245999999999998 -0.036209999999999999 0.10691000000000001 -0.68091000000000002 0.72452000000000005
-0.10151 -0.35321999999999998 -0.054188 -6.9425000000000003e-15 1 2.0502000000000001e-14
-0.090077000000000004 -0.40249000000000001 -0.036221999999999997 -0.059559000000000001 -0.50895999999999997 0.85872999999999999
-0.10990999999999999 -0.35829 -0.043560000000000001 -1 -1.2123999999999999e-15 -1.5782999999999999e-16
-0.10106 -0.37744 -0.028371 -0.00066096000000000004 0.24782000000000001 0.96880999999999995
-0.077214000000000005 -0.40639999999999998 -0.063101000000000004 -0.036785999999999999 -0.028953 0.99890000000000001
-0.042285000000000003 -0.36974000000000001 -0.032872999999999999 1 1.2103999999999999e-15 1.0687999999999999e-15
-0.095516000000000004 -0.35321999999999998 -0.062531000000000003 -0.091243000000000005 0.80400000000000005 0.58758999999999995
-0.10414 -0.35321999999999998 -0.062436999999999999 0.0046801999999999998 0.87058999999999997 0.49197999999999997
-0.089080999999999994 -0.35321999999999998 -0.036796000000000002 -0.010126 0.87768999999999997 0.47913
-0.062562000000000006 -0.35321999999999998 -0.044594000000000002 -1.4316e-14 1 -1.3349e-14
-0.079756999999999995 -0.35321999999999998 -0.059241000000000002 4.1506e-15 1 4.3389000000000004e-15
-0.049641999999999999 -0.35349999999999998 -0.036333999999999998 0.0066370999999999999 0.61429999999999996 0.78903999999999996
-0.056820000000000002 -0.36432999999999999 -0.032731999999999997 8.1813000000000008e-06 0.31553999999999999 0.94891000000000003
-0.067372000000000001 -0.35321999999999998 -0.060491999999999997 -4.3860000000000002e-16 1 -9.4458999999999999e-15
-0.042169999999999999 -0.41477000000000003 -0.063101000000000004 -3.4896999999999998e-16 5.6952999999999996e-17 1
-0.10274 -0.35346 -0.036346000000000003 0.058472000000000003 0.74865999999999999 0.66037000000000001
-0.10580000000000001 -0.40311000000000002 -0.040328999999999997 -3.2939000000000001e-15 -1 -2.4503999999999999e-14
-0.084667999999999993 -0.40311000000000002 -0.045372000000000003 -1.7580999999999999e-14 -1 7.6506999999999995e-15
-0.054824999999999999 -0.35321999999999998 -0.043462000000000001 -1.1327999999999999e-16 1 -3.0169999999999999e-14
-0.056945000000000003 -0.35321999999999998 -0.036763999999999998 0.052506999999999998 0.87944999999999995 0.47308
-0.045745000000000001 -0.35321999999999998 -0.062756000000000006 -0.14546999999999999 0.74375000000000002 0.65244000000000002
-0.049144 -0.40356999999999998 -0.063101000000000004 0.13117000000000001 -0.79610999999999998 0.59075999999999995
-0.10990999999999999 -0.37235000000000001 -0.030997 -0.97999000000000003 0.094771999999999995 0.17502999999999999
-0.049591000000000003 -0.35321999999999998 -0.045665999999999998 -2.1962000000000001e-14 1 5.4612e-14
-0.033440999999999999 -0.40405000000000002 -0.063101000000000004 -2.4993e-16 2.9343000000000002e-16 1
-0.067611000000000004 -0.35321999999999998 -0.036540999999999997 0.013520000000000001 0.78417999999999999 0.62039
-0.074031 -0.35321999999999998 -0.039595999999999999 6.7098000000000003e-15 1 -9.6869000000000005e-15
-0.084001000000000006 -0.35321999999999998 -0.053469999999999997 1.7978e-14 1 -6.1874999999999997e-15
-0.10974 -0.39216000000000001 -0.032786999999999997 -0.45306000000000002 -0.28870000000000001 0.84343999999999997
-0.10881 -0.35951 -0.034334999999999997 -0.31169000000000002 0.34328999999999998 0.88600000000000001
-0.042285000000000003 -0.37197999999999998 -0.044436000000000003 1 -9.2157e-17 1.8056999999999999e-16
-0.10990999999999999 -0.35692000000000002 -0.035466999999999999 -0.91066000000000003 0.071148000000000003 0.40697
-0.068100999999999995 -0.37935999999999998 -0.02853 0.040724999999999997 -0.20663999999999999 0.97757000000000005
-0.093824000000000005 -0.40311000000000002 -0.048423000000000001 -3.0008000000000002e-15 -1 6.8574999999999999e-15
-0.026100000000000002 -0.39883000000000002 -0.063101000000000004 -3.9304999999999998e-17 3.3630000000000001e-16 1
-0.10195 -0.35321999999999998 -0.044590999999999999 1.3686e-14 1 -1.8938999999999999e-14
-0.077245999999999995 -0.35321999999999998 -0.054503000000000003 5.8344000000000003e-15 1 7.9911e-15
-0.098554000000000003 -0.40311000000000002 -0.059910999999999999 -1.0907e-14 -1 2.1923999999999999e-14
-0.073432999999999998 -0.36825999999999998 -0.031426000000000003 -3.844e-06 0.3155 0.94893000000000005
-0.042285000000000003 -0.39899000000000001 -0.048923000000000001 1 1.883e-15 2.6762e-15
-0.060441000000000002 -0.35321999999999998 -0.058562999999999997 1.2836999999999999e-14 1 2.1706e-14
-0.062614000000000003 -0.40311000000000002 -0.037129000000000002 -3.4121e-15 -1 1.6786000000000001e-14
-0.10990999999999999 -0.39329999999999998 -0.052784999999999999 -1 1.2798e-15 1.6663000000000001e-15
-0.042285000000000003 -0.37518000000000001 -0.039202000000000001 1 -3.2436000000000001e-16 1.1863999999999999e-15
-0.042285000000000003 -0.35410999999999998 -0.038417 0.99829999999999997 -0.045747000000000003 0.036081000000000002
-0.054009000000000001 -0.35321999999999998 -0.053349000000000001 4.1678999999999997e-15 1 -1.7254000000000002e-14
-0.073524999999999993 -0.35321999999999998 -0.050942000000000001 1.0756e-14 1 -9.0526999999999998e-15
-0.070789000000000005 -0.35624 -0.035421000000000001 1.3936e-05 0.31552999999999998 0.94891999999999999
-0.10990999999999999 -0.37869999999999998 -0.040926999999999998 -1 1.9901000000000001e-15 -1.6718000000000001e-15
-0.045914000000000003 -0.34331 -0.063101000000000004 2.4444999999999999e-17 -4.5245999999999996e-16 1
-0.098937999999999998 -0.35321999999999998 -0.055113000000000002 -2.2052000000000001e-14 1 1.9836000000000001e-14
-0.043066 -0.38484000000000002 -0.030353000000000002 0.53873000000000004 -0.30797000000000002 0.78417000000000003
-0.10928 -0.35321999999999998 -0.045158999999999998 -0.73143999999999998 0.68157000000000001 0.021194999999999999
-0.10098 -0.40311000000000002 -0.055721 4.8343999999999998e-14 -1 1.2364e-14
-0.042285000000000003 -0.40112999999999999 -0.036882999999999999 0.99790000000000001 -0.044141 0.047419000000000003
-0.10990999999999999 -0.40239000000000003 -0.040175000000000002 -0.72075 -0.69101000000000001 -0.054979
-0.060982000000000001 -0.33629999999999999 -0.063101000000000004 1.0297999999999999e-18 3.9322999999999999e-17 1
-0.067713999999999996 -0.35321999999999998 -0.037000999999999999 -0.0084422000000000004 0.91047 0.41349999999999998
-0.10008 -0.35613 -0.035457000000000002 2.0619999999999999e-05 0.31552999999999998 0.94891999999999999
-0.046143000000000003 -0.40311000000000002 -0.045426000000000001 -1.6194e-16 -1 1.301e-14
-0.042285000000000003 -0.38818000000000003 -0.032951000000000001 0.99622999999999995 -0.034166000000000002 0.079716999999999996
-0.051246 -0.35321999999999998 -0.047463999999999999 -6.8503000000000001e-16 1 -3.0834e-15
-0.042285000000000003 -0.37652999999999998 -0.048300999999999997 1 3.2343999999999999e-16 1.066e-15
-0.075595999999999997 -0.35321999999999998 -0.051117000000000003 2.7557999999999999e-14 1 -1.6639999999999999e-14
-0.081842999999999999 -0.40311000000000002 -0.063088000000000005 -0.052086 -0.93793000000000004 0.34289999999999998
-0.11695999999999999 -0.35038999999999998 -0.063101000000000004 -1.4444e-15 8.5877000000000005e-16 1
-0.083086999999999994 -0.40311000000000002 -0.056193 1.4276e-15 -1 -7.6921999999999998e-15
-0.056092000000000003 -0.35321999999999998 -0.038178999999999998 -2.0506e-14 1 3.2808999999999998e-14
-0.077931 -0.40311000000000002 -0.043919 4.9839000000000004e-15 -1 -2.4243999999999999e-14
-0.075624999999999998 -0.36570999999999998 -0.032273999999999997 2.6565000000000001e-05 0.31552999999999998 0.94891000000000003
-0.074387999999999996 -0.40311000000000002 -0.043104999999999997 1.5563000000000001e-15 -1 -9.9902999999999999e-15
-0.055842000000000003 -0.35321999999999998 -0.046861 -0 1 -0
-0.10274999999999999 -0.35321999999999998 -0.048925000000000003 1.6262000000000001e-14 1 3.2153e-15
-0.096514000000000003 -0.35321999999999998 -0.04743 -0 1 0
-0.080431000000000002 -0.35476000000000002 -0.035915000000000002 0.053933000000000002 0.34702 0.93630000000000002
-0.096388000000000001 -0.36066999999999999 -0.033950000000000001 -6.0105000000000003e-06 0.31553999999999999 0.94891000000000003
-0.092089000000000004 -0.35321999999999998 -0.046700999999999999 1.0482999999999999e-14 1 -9.1778999999999995e-15
-0.088275000000000006 -0.37451000000000001 -0.029346000000000001 -2.5111000000000001e-05 0.31557000000000002 0.94889999999999997
-0.072700000000000001 -0.33299000000000001 -0.063101000000000004 5.0958999999999996e-16 1.5709e-16 1
-0.097194000000000003 -0.37084 -0.030565999999999999 -1.4813e-05 0.31551000000000001 0.94891999999999999
-0.10990999999999999 -0.36412 -0.055856999999999997 -1 -6.0060000000000004e-16 -5.0063000000000001e-15
-0.072068999999999994 -0.35396 -0.036180999999999998 0.052289000000000002 0.50770999999999999 0.85994000000000004
-0.10952000000000001 -0.40311000000000002 -0.049062000000000001 -0.71438000000000001 -0.69455 0.085154999999999995
-0.065484000000000001 -0.36709000000000003 -0.031815000000000003 2.5639e-05 0.31557000000000002 0.94889999999999997
-0.042285000000000003 -0.39757999999999999 -0.037275000000000003 0.99946000000000002 -0.023243 0.023307999999999999
-0.076952999999999994 -0.35321999999999998 -0.037019000000000003 -0.042965000000000003 0.95109999999999995 0.30586999999999998
-0.080251000000000003 -0.35321999999999998 -0.050999000000000003 0 1 0
-0.079339999999999994 -0.39485999999999999 -0.033685 -6.3192000000000004e-06 -0.31552000000000002 0.94891999999999999
-0.068846000000000004 -0.40311000000000002 -0.047296999999999999 1.1763999999999999e-14 -1 -5.1438999999999998e-15
-0.10990999999999999 -0.39693000000000001 -0.038061999999999999 -1 1.2212e-15 5.6759999999999999e-16
-0.099160999999999999 -0.40311000000000002 -0.060352000000000003 1.3646e-14 -1 -3.4107e-15
-0.061303999999999997 -0.39562999999999998 -0.033940999999999999 5.4168e-05 -0.31556000000000001 0.94889999999999997
-0.043167999999999998 -0.40311000000000002 -0.053029 0.027413 -0.99961999999999995 -0.00034497999999999999
-0.049200000000000001 -0.40311000000000002 -0.048390000000000002 -2.6127e-15 -1 -1.907e-15
-0.055558000000000003 -0.37380000000000002 -0.029583999999999999 1.6229999999999999e-05 0.31557000000000002 0.94889999999999997
-0.034245999999999999 -0.33726 -0.063101000000000004 4.9476999999999995e-16 -1.6353999999999999e-16 1
-0.067988999999999994 -0.40311000000000002 -0.037518999999999997 -1.2156999999999999e-14 -1 -7.9318e-15
-0.10607 -0.35321999999999998 -0.040391999999999997 -4.0750000000000001e-15 1 -1.5518000000000001e-15
-0.08269 -0.40311000000000002 -0.039442999999999999 -1.1324e-14 -1 1.8613000000000001e-15
-0.084473000000000006 -0.40311000000000002 -0.043161999999999999 -1.0769e-15 -1 5.8891000000000002e-15
-0.063739000000000004 -0.36436000000000002 -0.032723000000000002 1.4783000000000001e-05 0.31553999999999999 0.94891000000000003
-0.10990999999999999 -0.37724999999999997 -0.039510000000000003 -1 7.0260000000000002e-15 -4.6032999999999997e-15
-0.042285000000000003 -0.37258999999999998 -0.046061999999999999 1 -7.7986999999999999e-16 -4.9637999999999999e-16
-0.089565000000000006 -0.40311000000000002 -0.040334000000000002 8.1296000000000002e-15 -1 -5.41e-15
-0.048820000000000002 -0.40311000000000002 -0.045531000000000002 1.1063e-14 -1 2.3754999999999999e-14
-0.10990999999999999 -0.39057999999999998 -0.058534000000000003 -1 1.5136999999999999e-15 -5.1718000000000001e-15
-0.045919000000000001 -0.39798 -0.034722999999999997 -4.0969e-05 -0.31551000000000001 0.94891999999999999
-0.093057000000000001 -0.40311000000000002 -0.037545000000000002 0.026786999999999998 -0.99956 0.012886
-0.078836000000000003 -0.35321999999999998 -0.038141000000000001 0.014853999999999999 0.99904000000000004 0.041131000000000001
-0.070794999999999997 -0.40311000000000002 -0.061968000000000002 -6.6726999999999997e-15 -1 2.7164e-14
-0.091736999999999999 -0.35321999999999998 -0.043498000000000002 9.3345000000000005e-15 1 4.3614000000000002e-15
-0.048143999999999999 -0.35321999999999998 -0.036544 -0.040332 0.93049999999999999 0.36407
-0.094558000000000003 -0.35321999999999998 -0.043136000000000001 -1.6243000000000001e-14 1 -2.8826999999999999e-14
-0.067996000000000001 -0.40311000000000002 -0.052440000000000001 -1.2483e-14 -1 -5.5812000000000001e-15
-0.063747999999999999 -0.35321999999999998 -0.045634000000000001 5.8355999999999996e-15 1 6.3621999999999999e-15
-0.10990999999999999 -0.38651000000000002 -0.058716999999999998 -1 -1.0689e-14 3.5798000000000003e-15
-0.024067999999999999 -0.37069000000000002 -0.063101000000000004 -2.0011999999999999e-15 -7.4843999999999994e-17 1
-0.091023999999999994 -0.40311000000000002 -0.038700999999999999 -1.1387e-14 -1 9.9431000000000002e-15
-0.043541999999999997 -0.35321999999999998 -0.039602999999999999 -1.4174e-14 1 9.3392e-15
-0.054113000000000001 -0.40089999999999998 -0.035693999999999997 0.089126999999999998 -0.38216 0.91979
-0.051284000000000003 -0.38239000000000001 -0.029537999999999998 -2.2231000000000001e-05 -0.31556000000000001 0.94889999999999997
-0.10202 -0.40311000000000002 -0.062847 -0.062948000000000004 -0.58343 0.80972
-0.092258000000000007 -0.36925000000000002 -0.031095999999999999 -2.5933000000000001e-05 0.31555 0.94891000000000003
-0.10613 -0.37290000000000001 -0.029881999999999999 6.4113000000000001e-05 0.31553999999999999 0.94891000000000003
-0.10990999999999999 -0.38832 -0.061763999999999999 -0.95418999999999998 -0.10606 0.27976000000000001
-0.072344000000000006 -0.36820999999999998 -0.031441999999999998 3.9246999999999999e-05 0.31547999999999998 0.94893000000000005
-0.094724000000000003 -0.35321999999999998 -0.036933000000000001 -0.094088000000000005 0.91356999999999999 0.39565
-0.080407999999999993 -0.35321999999999998 -0.055891999999999997 -1.7851000000000001e-14 1 1.7414000000000001e-14
-0.074162000000000006 -0.37237999999999999 -0.030057 1.8519999999999999e-05 0.31555 0.94891000000000003
-0.042285000000000003 -0.4022 -0.050888000000000003 0.91817000000000004 -0.38521 -0.092613000000000001
-0.065585000000000004 -0.40311000000000002 -0.041348999999999997 -7.7327999999999998e-15 -1 6.7975999999999999e-15
-0.10408000000000001 -0.42096 -0.063101000000000004 8.8716999999999998e-16 1.9408999999999999e-16 1
-0.058569999999999997 -0.35321999999999998 -0.058790000000000002 -0 1 -0
-0.10990999999999999 -0.35374 -0.039278 -0.81635000000000002 0.57667999999999997 -0.031800000000000002
-0.076244999999999993 -0.40311000000000002 -0.040152 1.3204000000000001e-14 -1 -1.1528999999999999e-14
-0.059117999999999997 -0.40311000000000002 -0.062825000000000006 0.062648999999999996 -0.82274999999999998 0.56494999999999995
-0.092882999999999993 -0.40311000000000002 -0.042491000000000001 -2.3127999999999999e-14 -1 -5.6277999999999997e-15
-0.068432000000000007 -0.39251000000000003 -0.032903000000000002 1.7961e-05 -0.31552999999999998 0.94891000000000003
-0.076190999999999995 -0.40617999999999999 -0.063101000000000004 0.088335999999999998 -0.17116000000000001 0.98128000000000004
-0.062211000000000002 -0.40311000000000002 -0.05738 1.0012999999999999e-14 -1 -5.7305000000000003e-15
-0.042285000000000003 -0.37059999999999998 -0.031426999999999997 0.88824000000000003 0.17227000000000001 0.42585000000000001
-0.083238000000000006 -0.40311000000000002 -0.061466 -0.00094213000000000001 -0.99997999999999998 0.0063438000000000001
-0.044345000000000002 -0.38150000000000001 -0.029241 0.13294 -0.37152000000000002 0.91886000000000001
-0.074414999999999995 -0.35321999999999998 -0.041741 4.525e-15 1 5.5559000000000002e-15
-0.074189000000000005 -0.35321999999999998 -0.047079999999999997 1.4091999999999999e-14 1 -2.3176e-14
-0.1019 -0.35321999999999998 -0.039871999999999998 -1.8807e-15 1 1.0766999999999999e-15
-0.067887000000000003 -0.40311000000000002 -0.045685999999999997 -2.4142000000000001e-14 -1 -1.8538999999999999e-14
-0.050501999999999998 -0.35402 -0.036160999999999999 -0.031480000000000001 0.18595 0.98206000000000004
-0.042285000000000003 -0.36551 -0.055488000000000003 1 5.4159999999999997e-16 1.673e-15
-0.065583000000000002 -0.35321999999999998 -0.039147000000000001 1.8516e-15 1 1.8189e-14
-0.060196 -0.35321999999999998 -0.059887000000000003 -1.0025e-14 1 -3.6186000000000001e-15
-0.056127000000000003 -0.40133999999999997 -0.035839999999999997 -0.0010122 -0.36953999999999998 0.92922000000000005
-0.053171999999999997 -0.37884000000000001 -0.028357 0.072272000000000003 -0.089129 0.99339999999999995
-0.042285000000000003 -0.39821000000000001 -0.056283 1 7.1912000000000004e-16 -3.0691000000000001e-15
-0.077713000000000004 -0.35321999999999998 -0.051877 7.7991999999999994e-15 1 -1.164e-14
-0.031954000000000003 -0.33959 -0.063101000000000004 -9.1529e-17 -7.9186999999999999e-16 1
-0.10990999999999999 -0.35693999999999998 -0.039033999999999999 -1 1.5177999999999999e-15 6.3267e-15
-0.048050000000000002 -0.35321999999999998 -0.047793000000000002 8.7624999999999999e-15 1 -1.1625000000000001e-15
-0.041957000000000001 -0.39147999999999999 -0.063101000000000004 0.92810999999999999 -0.081749000000000002 0.36323
-0.069903000000000007 -0.35365000000000002 -0.036282000000000002 0.011747 0.59994999999999998 0.79995000000000005
-0.078140000000000001 -0.40311000000000002 -0.054768999999999998 1.5124999999999999e-14 -1 1.4163999999999999e-15
-0.083366999999999997 -0.38585999999999998 -0.030689999999999999 2.0013e-05 -0.31551000000000001 0.94891999999999999
-0.063058000000000003 -0.35321999999999998 -0.047051000000000003 2.0927999999999999e-14 1 -1.8918e-14
-0.052837000000000002 -0.35321999999999998 -0.056994000000000003 9.4718999999999992e-16 1 2.7602000000000002e-15
-0.079277 -0.33839999999999998 -0.063101000000000004 -2.8248000000000001e-16 2.3290000000000002e-15 1
-0.051922000000000003 -0.35321999999999998 -0.042750000000000003 2.6867000000000001e-14 1 -5.7898000000000003e-15
-0.076774999999999996 -0.36960999999999999 -0.030977000000000001 6.1948000000000004e-06 0.3155 0.94893000000000005
-0.1022 -0.35321999999999998 -0.045143000000000003 1.0646e-14 1 -1.0581000000000001e-14
-0.086449999999999999 -0.40311000000000002 -0.038047999999999998 -1.8972e-14 -1 -5.6132000000000002e-16
-0.057547000000000001 -0.40311000000000002 -0.041640000000000003 -7.7876000000000006e-15 -1 -1.2382e-14
-0.050389999999999997 -0.40311000000000002 -0.040046999999999999 5.1071999999999998e-15 -1 -5.4727999999999999e-16
-0.099363000000000007 -0.40311000000000002 -0.039275999999999998 -2.5015000000000001e-14 -1 -1.1641999999999999e-14
-0.042285000000000003 -0.39362999999999998 -0.051062999999999997 1 -5.5037000000000001e-17 1.0711999999999999e-15
-0.045519999999999998 -0.40311000000000002 -0.046240999999999997 2.5310000000000001e-14 -1 2.5438e-14
-0.038039000000000003 -0.35665000000000002 -0.063101000000000004 0.1149 -0.025426000000000001 0.99304999999999999
-0.077687999999999993 -0.35321999999999998 -0.058356999999999999 5.4486000000000002e-15 1 -8.0676999999999997e-15
-0.10983999999999999 -0.35321999999999998 -0.039803999999999999 -0.75136000000000003 0.65517999999999998 0.078704999999999997
-0.045835000000000001 -0.40311000000000002 -0.051500999999999998 6.3947999999999997e-15 -1 1.0941e-14
-0.085047999999999999 -0.3851 -0.030440999999999999 1.0532e-05 -0.31552999999999998 0.94891000000000003
-0.071125999999999995 -0.35321999999999998 -0.047787999999999997 7.0987e-15 1 -2.0211999999999999e-14
-0.075728000000000004 -0.35321999999999998 -0.06216 -2.5072999999999999e-15 1 1.7331e-14
-0.058587 -0.40311000000000002 -0.047982999999999998 1.6603999999999999e-14 -1 -1.6639999999999999e-14
-0.098760000000000001 -0.40311000000000002 -0.055757000000000001 -6.3140999999999998e-15 -1 -7.4741000000000005e-15
-0.073272000000000004 -0.35321999999999998 -0.037221999999999998 0.035333999999999997 0.98360000000000003 0.17688000000000001
-0.1009 -0.40311000000000002 -0.047265000000000001 1.4884000000000001e-14 -1 -2.5300999999999998e-15
-0.10205 -0.40311000000000002 -0.061314 0.028753999999999998 -0.99931999999999999 0.022956000000000001
-0.067728999999999998 -0.35321999999999998 -0.050115 2.2073999999999999e-15 1 -7.1006000000000002e-15
-0.045266000000000001 -0.35321999999999998 -0.042932999999999999 -1.9901999999999999e-15 1 -5.6162000000000004e-16
-0.074878 -0.35321999999999998 -0.053144999999999998 -1.0622999999999999e-14 1 -9.3421000000000001e-15
-0.065224000000000004 -0.35321999999999998 -0.049022999999999997 -3.3761999999999999e-15 1 -2.3018000000000001e-15
-0.10178 -0.40311000000000002 -0.047781999999999998 1.6157e-15 -1 -1.8633999999999999e-15
-0.078908000000000006 -0.35321999999999998 -0.037725000000000002 0.089427999999999994 0.98468 0.14971000000000001
-0.078843999999999997 -0.35321999999999998 -0.051839999999999997 -1.3901999999999999e-16 1 -5.8009000000000001e-15
-0.060464999999999998 -0.36276000000000003 -0.033252999999999998 1.3812e-06 0.31547999999999998 0.94893000000000005
-0.036694999999999998 -0.33006000000000002 -0.063101000000000004 -4.6892000000000003e-16 -6.3444999999999999e-16 1
-0.039134000000000002 -0.36238999999999999 -0.063101000000000004 0.24586 -0.010172 0.96924999999999994
-0.10990999999999999 -0.40101999999999999 -0.056575 -0.99936000000000003 -0.035698000000000001 0.00042752000000000003
-0.065176999999999999 -0.40311000000000002 -0.047551999999999997 -1.0442e-14 -1 -2.4754e-15
-0.099505999999999997 -0.35925000000000001 -0.034423000000000002 -5.0936999999999997e-05 0.31552999999999998 0.94891999999999999
-0.042285000000000003 -0.37747000000000003 -0.048507000000000002 1 -0 -0
-0.071668999999999997 -0.40311000000000002 -0.045164000000000003 -3.6651999999999997e-15 -1 4.08e-15
-0.057505000000000001 -0.36770000000000003 -0.031609999999999999 5.1140000000000002e-05 0.31542999999999999 0.94894999999999996
-0.099273 -0.40311000000000002 -0.038234999999999998 -1.06e-14 -1 -6.4315999999999998e-15
-0.068394999999999997 -0.35321999999999998 -0.043936000000000003 5.7655000000000003e-15 1 -3.2505999999999999e-14
-0.061217000000000001 -0.35321999999999998 -0.040918000000000003 -1.8164000000000001e-14 1 3.5715999999999999e-14
-0.042285000000000003 -0.40068999999999999 -0.052753000000000001 0.99356999999999995 -0.10545 0.041121999999999999
-0.077046000000000003 -0.35321999999999998 -0.039537999999999997 -1.6949e-14 1 -8.1524999999999998e-16
-0.042285000000000003 -0.38485000000000003 -0.041725999999999999 1 2.3758999999999998e-16 1.7691e-16
-0.044757999999999999 -0.40311000000000002 -0.050824000000000001 1.0716e-14 -1 1.9469000000000001e-14
-0.092078999999999994 -0.36814999999999998 -0.031461999999999997 -1.7876999999999998e-05 0.31556000000000001 0.94891000000000003
-0.044572000000000001 -0.35321999999999998 -0.053802000000000003 -4.0235e-15 1 -3.8069000000000004e-15
-0.11347 -0.36448999999999998 -0.063101000000000004 -0.066632999999999998 -0.00030253000000000002 0.99778
-0.042285000000000003 -0.36331000000000002 -0.036482000000000001 1 5.1603999999999998e-17 -1.2285999999999999e-16
-0.042285000000000003 -0.35427999999999998 -0.057773999999999999 0.99765000000000004 0.066234000000000001 -0.017621000000000001
-0.077943999999999999 -0.35781000000000002 -0.034901000000000001 7.5050999999999997e-05 0.31546000000000002 0.94894000000000001
-0.076422000000000004 -0.40311000000000002 -0.038151999999999998 2.0524e-14 -1 2.0945e-15
-0.054695000000000001 -0.35321999999999998 -0.047454999999999997 -2.3646999999999999e-15 1 8.8364999999999997e-16
-0.058186000000000002 -0.40311000000000002 -0.042134999999999999 -2.0069e-14 -1 4.0851999999999997e-14
-0.042285000000000003 -0.3604 -0.049550999999999998 1 0 -0
-0.063159000000000007 -0.35321999999999998 -0.057444000000000002 4.8526e-15 1 5.9508999999999997e-15
-0.10990999999999999 -0.37905 -0.037432 -1 3.2990999999999999e-15 1.2373e-15
-0.10256999999999999 -0.35321999999999998 -0.048122999999999999 -5.4990999999999998e-15 1 6.6949e-15
-0.10711 -0.40311000000000002 -0.047169999999999997 -1.1851999999999999e-14 -1 8.7273999999999996e-16
-0.082475000000000007 -0.35321999999999998 -0.045644999999999998 -8.5651000000000003e-15 1 1.7749e-14
-0.065767999999999993 -0.40311000000000002 -0.057126999999999997 2.7047e-15 -1 6.3021000000000004e-15
-0.10596999999999999 -0.35321999999999998 -0.043296000000000001 2.2206e-16 1 -1.8937e-15
-0.095351000000000005 -0.36548999999999998 -0.032346 -4.3059000000000002e-05 0.3155 0.94891999999999999
-0.058942000000000001 -0.35321999999999998 -0.054113000000000001 -1.2126e-14 1 1.1273e-14
-0.042285000000000003 -0.35349999999999998 -0.045337000000000002 0.87827999999999995 0.47738999999999998 -0.026849999999999999
-0.055703999999999997 -0.40311000000000002 -0.062770000000000006 0.15745999999999999 -0.76446999999999998 0.62512999999999996
