0.144194 -0.322124 0.027573 0.818521 -0.570476 0.0676784
-0.211393 -0.404719 0.0407037 -0.630315 -0.291214 0.719651
-0.292927 -0.288592 -0.129177 -0.990615 -0.109891 -0.0812726
-0.184341 0.0828472 -0.198515 0.439918 0.0762345 -0.894796
0.078639 -0.498815 -0.0739445 -0.00510987 -0.999971 -0.00564766
-0.175156 -0.488829 0.0422464 -0.607614 -0.782596 0.13546
0.1894 -0.0459633 0.0839991 0.62222 -0.74756 0.232371
-0.15461 -0.00446454 -0.0209909 -0.723798 -0.684294 -0.0886425
0.0209566 0.410048 0.0374857 -0.110107 0.987395 0.113698
-0.00977547 0.354148 -0.174977 -0.193913 0.773312 -0.603644
-0.102549 0.367576 0.0337982 -0.516922 0.848223 0.115369
-0.0883126 0.376151 0.0292266 -0.473217 0.876161 0.091687
0.0710941 -0.455887 -0.135638 0.658879 0.313412 -0.683851
-0.199799 -0.48912 -0.146251 -0.537489 -0.81849 -0.202927
0.285465 0.107793 0.0304012 0.994702 -0.0935933 0.0425255
-0.0322139 -0.496688 -0.135147 -0.0210457 -0.999544 0.0216618
0.0196552 0.384941 -0.132332 -0.0868276 0.903942 -0.418749
0.104538 0.378034 -0.130179 0.175059 0.817483 -0.548704
-0.0603471 0.359987 -0.132272 -0.402567 0.825478 -0.395633
-0.206451 0.0910581 0.0376327 -0.878205 -0.299657 0.372775
0.153473 -0.106911 0.0228947 0.984174 -0.156529 -0.0830642
0.173603 0.344637 -0.141987 0.221746 0.425977 -0.877138
0.190488 0.33679 -0.141324 0.231344 0.304609 -0.923955
-0.132017 0.325936 -0.119402 -0.439207 0.788804 -0.429983
-0.19574 -0.233309 0.0305631 -0.246683 0.519414 0.818142
0.193027 0.127902 -0.20252 0.632252 -0.105453 -0.767552
-0.220473 -0.391213 0.0384067 -0.623388 -0.279108 0.730401
-0.227538 -0.375351 0.0380954 -0.62885 -0.233361 0.741681
-0.246518 0.272096 -0.142958 -0.350757 0.340957 -0.872191
0.104538 -0.403476 0.0301987 0.811335 -0.226965 0.538722
0.108235 -0.437368 0.0166916 0.708343 -0.113348 0.696708
0.175898 0.386755 0.0328673 0.598324 0.24314 0.763474
-0.0071043 0.340188 -0.191583 -0.17229 0.715294 -0.677252
0.23727 0.00798011 -0.0697395 0.769219 -0.580839 -0.266323
-0.194596 0.246983 0.0271852 -0.954278 0.26831 0.131767
-0.2262 0.00908388 -0.14688 -0.831939 0.0960523 0.546491
-0.224458 -0.00735638 -0.143703 -0.510551 -0.112327 0.852479
-0.162427 0.00320268 -0.143691 0.227818 -0.952379 0.202664
-0.217586 0.146925 0.0176597 -0.688554 0.322278 0.649639
-0.085652 0.371196 -0.0658153 -0.433537 0.873948 -0.219682
-0.0758648 -0.0743407 0.0429281 -0.519395 -0.854359 0.0173173
-0.0347047 -0.35628 0.113126 -0.51154 -0.303963 0.8037
-0.204768 -0.00914882 -0.139794 -0.065888 -0.421793 0.904295
-0.0846187 -0.0171186 -0.148605 -0.389159 -0.761041 -0.51901
-0.0240584 -0.138016 0.0226334 -0.996927 0.0688312 -0.0373965
-0.0840004 -0.156141 -0.118736 0.31355 0.947761 -0.0586179
0.162009 -0.15846 0.0391702 0.959301 0.282365 0.00344647
0.17331 -0.204999 0.0218824 0.971205 0.191008 -0.142396
-0.280107 -0.205333 -0.136936 -0.854232 0.439648 0.277484
-0.0969425 -0.218539 0.0432566 -0.425622 0.58488 0.690479
0.0472032 -0.302055 -0.136627 0.733241 -0.0831873 -0.674861
-0.132158 -0.221565 0.0299595 -0.172332 0.548792 0.818003
-0.226576 -0.241392 0.021098 -0.488162 0.473695 0.733015
-0.161405 0.00733689 -0.0538023 -0.697556 -0.708412 -0.107555
0.163214 -0.290378 0.0215335 0.904915 -0.42432 -0.0328801
-0.245517 -0.334394 0.0296005 -0.694902 -0.0452465 0.71768
0.0199194 -0.486271 -0.193743 0.420003 -0.570246 -0.705986
0.0221219 0.214062 0.2343 0.0126469 0.131055 0.991294
0.0490004 -0.497215 -0.136687 0.20124 -0.967879 -0.150705
0.253755 0.315815 0.0159392 0.0772693 0.481669 0.87294
0.12176 0.356023 -0.1509 0.280567 0.696375 -0.660564
-0.214657 -0.444958 -0.180269 -0.758216 -0.451687 -0.470198
0.178216 0.32665 -0.148777 0.347958 0.406771 -0.844668
-0.0935164 0.33066 -0.153084 -0.454809 0.741243 -0.493668
-0.203405 -0.450579 -0.191739 -0.70215 -0.457596 -0.54552
-0.207 0.198493 0.0164391 -0.967451 0.198524 0.15693
0.231027 0.254802 -0.13806 0.734803 0.204611 -0.646683
0.233872 0.225882 -0.145611 0.796768 0.209985 -0.566628
-0.273381 0.209194 -0.130494 -0.732021 -0.148119 -0.664986
0.107142 -0.0753505 0.137001 0.386993 -0.702917 0.596778
-0.202548 0.213786 0.0292783 -0.969781 0.213942 0.117275
0.241123 0.102805 -0.142923 0.820911 -0.144612 -0.552443
-0.206092 0.194862 0.0307296 -0.977275 0.180852 0.11057
-0.208865 0.175282 0.0358163 -0.983871 0.125644 0.127323
0.178667 0.00356043 -0.157652 0.54628 -0.61379 -0.569948
-0.115846 0.00223713 -0.151608 -0.368004 -0.782666 -0.502004
0.286441 0.125163 0.0235062 0.999413 -0.0218772 0.0263525
0.166379 -0.0100296 -0.153391 0.504345 -0.659927 -0.556895
0.262438 0.0276901 0.028997 0.886296 -0.461848 0.0342902
-0.16156 0.000670529 0.0126438 -0.786049 -0.618145 -0.00484527
0.215463 -0.0332802 0.0233138 0.702518 -0.711153 0.027011
-0.0929137 -0.0637692 0.0404563 -0.564482 -0.825424 0.00588943
-0.15787 0.278852 0.112354 -0.781268 0.483007 0.39538
-0.0339005 -0.0382172 -0.150601 -0.293612 -0.795926 -0.529427
0.264088 0.0541817 -0.0665032 0.902637 -0.349617 -0.251028
0.168638 -0.274655 0.013027 0.945086 -0.301381 -0.126416
-0.250129 -0.362459 0.0193943 -0.751171 -0.224061 0.620917
-0.233708 -0.387936 0.027282 -0.692652 -0.304428 0.653878
0.115363 -0.404062 0.0118581 0.888533 -0.084658 0.450935
0.0321767 -0.228273 -0.135758 0.687131 0.458563 -0.563535
-0.299099 -0.168698 -0.248325 -0.905596 -0.140341 -0.40025
-0.223 -0.421313 0.0186501 -0.729485 -0.425614 0.535447
0.257112 0.195209 0.122793 0.889289 0.153014 0.43099
0.0227345 -0.390059 -0.192043 0.846006 -0.36297 -0.390546
0.210578 0.457119 0.0209029 -0.0196127 0.326596 0.944961
0.18962 0.457166 0.0125523 -0.467041 0.714471 0.520964
0.0366153 -0.385768 -0.15832 0.940164 -0.17894 -0.289953
0.213142 0.435676 0.019577 0.36941 -0.128611 0.920323
0.0191458 -0.258955 -0.198573 0.901931 0.37245 -0.218635
0.148728 0.424592 0.0153004 -0.46409 0.802864 0.374206
0.000320593 0.409216 0.0118622 -0.175881 0.982985 0.052976
0.200788 0.418861 0.0220936 0.415968 -0.136269 0.899112
-0.140665 0.343686 0.0199434 -0.567508 0.79678 0.207549
-0.127363 0.319229 -0.135938 -0.486053 0.729427 -0.481341
-0.144817 0.33575 0.0360718 -0.656629 0.709457 0.255947
-0.138418 0.305414 -0.14371 -0.458909 0.676202 -0.576328
-0.0756185 -0.192956 -0.239081 0.356993 0.717573 -0.598034
0.225594 -0.00770391 -0.0661505 0.727878 -0.637033 -0.253737
-0.229625 -0.449882 -0.141533 -0.848288 -0.465106 -0.253149
0.278398 0.0681778 0.0152996 0.964603 -0.263699 0.00180567
-0.103683 -0.207407 0.0291809 -0.314341 0.681813 0.660546
-0.255255 0.226179 -0.147806 -0.566676 0.027152 -0.823493
0.239367 0.182908 -0.149897 0.830002 0.0947034 -0.549662
0.122868 -0.354468 0.0279236 0.862971 -0.454121 0.221481
-0.235155 0.131094 -0.146681 -0.884124 0.163112 -0.437859
0.232036 0.0850332 -0.150646 0.792373 -0.198146 -0.57696
0.219817 0.0766436 -0.163328 0.745647 -0.236626 -0.622912
0.0380455 -0.322886 -0.182897 0.982341 0.0673289 -0.174568
0.0110407 -0.242705 -0.199149 0.85222 0.445262 -0.274705
-0.296641 -0.22868 -0.193093 -0.979967 -0.196189 -0.0342726
0.110067 -0.419035 0.0171781 0.791284 -0.107865 0.601859
0.0826598 -0.480867 0.0300315 0.664478 -0.497449 0.557686
-0.119541 -0.0375358 0.0899625 -0.658766 -0.734039 0.164967
-0.0581909 -0.4898 0.0206083 0.0197556 -0.879217 -0.476012
-0.212817 -0.477305 -0.143537 -0.766865 -0.601674 -0.223399
-0.281934 -0.193636 -0.153372 -0.773272 0.418274 0.476546
0.0723339 0.0858134 -0.254435 0.191842 -0.277792 -0.941291
0.159991 0.436018 0.00604662 -0.585445 0.774531 0.23949
-0.293417 -0.241561 -0.147972 -0.993112 0.0786905 0.0868146
0.0316793 -0.275332 -0.151669 0.893847 0.0646235 -0.443691
-0.0191391 0.404802 0.0172425 -0.24551 0.9674 0.0621461
-0.156768 0.332523 0.0180062 -0.591437 0.734546 0.332632
0.0568445 -0.48934 -0.15511 0.656291 -0.595055 -0.463887
-0.0712308 -0.496539 -0.136413 -0.00105395 -0.999113 0.042093
0.157577 0.00502102 0.216028 0.508854 -0.556589 0.656717
0.0543057 0.37397 -0.151633 0.0979498 0.832822 -0.544806
0.130949 0.338355 -0.164077 0.344451 0.637732 -0.688949
0.269466 0.311966 0.0198933 -0.0953249 0.412482 0.905964
0.188142 0.29603 -0.159801 0.529629 0.411384 -0.741793
0.203112 0.238272 -0.176348 0.662404 0.293436 -0.689286
-0.242286 0.217663 -0.156161 -0.492905 0.0277149 -0.869642
0.268181 0.341448 0.007888 -0.140971 0.300505 0.943305
-0.252003 0.196964 -0.148814 -0.62291 -0.119408 -0.773127
0.0366499 0.387472 -0.129209 -0.0102754 0.907223 -0.420525
-0.17943 0.292235 0.0213019 -0.873292 0.300356 0.383598
-0.243126 0.115362 -0.143084 -0.947979 0.317569 0.0220388
-0.0290279 -0.0729979 -0.0893287 -0.29726 -0.874028 -0.384333
-0.239118 0.0544181 -0.163583 -0.781304 -0.620255 -0.0696283
-0.108237 -0.0522591 0.0380275 -0.617076 -0.786864 -0.00786182
0.179854 -0.0642282 0.0129505 0.659519 -0.750806 -0.0363955
-0.142931 0.0185253 -0.164919 0.320896 -0.707381 -0.629792
-0.214763 0.2847 -0.145197 -0.125547 0.50826 -0.852004
-0.0406209 -0.0975544 0.0176185 -0.70847 -0.703655 -0.0542228
-0.177108 -0.00794331 -0.14844 0.462385 -0.70596 0.536489
-0.0695311 -0.0195123 -0.156162 -0.358177 -0.74839 -0.558231
0.266524 0.0397197 0.0551379 0.909151 -0.399191 0.118703
0.00125149 -0.223179 -0.193254 0.770992 0.552725 -0.316333
-0.0305367 -0.109674 0.0201598 -0.864315 -0.50189 -0.0326581
-0.0245221 -0.123371 0.0111242 -0.966404 -0.241632 -0.0876223
-0.250292 -0.267522 0.014765 -0.687629 0.262496 0.676951
0.240909 0.238767 -0.1303 0.796822 0.157036 -0.58345
-0.241815 -0.161643 -0.14921 -0.382792 0.891501 0.242272
-0.229862 -0.425421 0.00483869 -0.756292 -0.477137 0.447619
-0.21272 -0.434821 0.0227156 -0.792695 -0.352534 0.497347
0.0454307 -0.497892 0.0216826 0.0592476 -0.997804 0.0296172
0.0332557 -0.245332 -0.146013 0.762076 0.30001 -0.57379
0.0325973 -0.49834 0.0074443 0.00580487 -0.999942 0.00903488
-0.060822 -0.0621077 -0.0831665 -0.416817 -0.848144 -0.32698
0.258286 0.47548 0.00953412 0.199794 0.139374 0.969875
0.0321797 -0.295698 -0.151232 0.927898 0.127469 -0.350366
-0.00333912 -0.324387 -0.256038 0.628362 -0.0624924 -0.775407
-0.284629 -0.304645 -0.163416 -0.945816 -0.238308 -0.220547
0.0409943 -0.334572 -0.145693 0.976291 0.101856 -0.190998
0.232396 0.429013 0.00934273 0.334803 -0.202217 0.920334
0.204186 0.398252 0.0160715 0.468741 -0.140053 0.872162
-0.0858801 0.0216913 -0.19022 -0.387046 -0.592079 -0.706851
0.23182 0.337802 0.008973 0.346252 0.42013 0.838809
-0.00513071 -0.302716 -0.256641 0.65309 0.0786508 -0.753185
-0.299971 -0.205532 -0.186711 -0.979061 -0.0747255 0.189354
-0.0345734 0.284198 -0.22785 -0.277244 0.473088 -0.836256
-0.101463 0.0328441 -0.190485 -0.393241 -0.553595 -0.734094
-0.111506 -0.248219 0.0519659 -0.453051 0.315881 0.833645
-0.110535 0.325098 -0.144641 -0.48937 0.731928 -0.474129
0.174797 0.311363 -0.159467 0.461013 0.475772 -0.749071
-0.286721 -0.330105 -0.0539674 -0.980238 -0.137978 0.141756
-0.148449 -0.0140466 0.00504672 -0.724548 -0.686661 -0.0593875
-0.0278262 -0.153048 0.0115291 -0.888718 0.451586 -0.0790628
-0.219344 0.254141 -0.158228 -0.231123 0.309743 -0.922302
-0.258904 -0.309644 0.0149765 -0.788669 0.060574 0.611827
0.0505055 -0.490981 0.074455 0.633156 -0.73159 0.252764
0.107851 -0.469549 0.0117046 0.632883 -0.227081 0.740198
0.22356 0.112127 -0.168939 0.763056 -0.134928 -0.632091
0.0710927 -0.497435 -0.00173499 0.0773156 -0.994073 0.0764337
-0.223673 0.027444 -0.148208 -0.954771 -0.063394 0.290504
-0.228341 0.0145852 -0.162255 -0.954656 0.291757 0.0592445
0.0622112 -0.496852 0.0169328 0.130223 -0.986808 0.0961885
-0.125348 0.0154365 -0.164866 -0.21655 -0.726721 -0.651907
-0.00511686 -0.105179 -0.0458039 -0.489975 -0.635777 -0.596416
0.244344 0.443522 0.00857799 0.270919 -0.188256 0.944014
-0.24171 -0.0409029 -0.157821 -0.468965 -0.135246 0.8728
0.0368491 -0.0565357 -0.145001 -0.036774 -0.87446 -0.483701
-0.000244974 -0.0522202 -0.144098 -0.190413 -0.848568 -0.493635
0.0566439 -0.0560406 -0.145614 0.0510685 -0.873494 -0.48415
-0.245874 -0.168023 -0.133081 -0.550201 0.813554 0.188171
-0.272571 -0.176349 -0.157201 -0.591393 0.548729 0.59089
-0.293817 -0.226924 -0.158272 -0.980031 0.0733897 0.184806
0.0283089 -0.258892 -0.157219 0.87687 0.161562 -0.452766
-0.28029 -0.321763 -0.161982 -0.932676 -0.270132 -0.23905
0.236855 0.261206 0.120823 0.810566 0.408755 0.419408
0.0429849 -0.352435 -0.138283 0.965172 -0.0298414 -0.259909
0.206147 0.367402 0.0125632 0.530326 0.172699 0.830018
0.246823 0.014338 -0.0524833 0.810726 -0.549518 -0.201873
-0.183967 0.307603 0.00978322 -0.685554 0.245969 0.685212
0.304304 0.272609 0.019585 0.873231 -0.0945508 0.478046
-0.0695113 0.371129 0.0957997 -0.438795 0.834505 0.333258
-0.20019 0.228719 0.019012 -0.963258 0.235805 0.128572
-0.277919 -0.230482 -0.0624988 -0.888172 0.38905 0.244523
0.258399 0.0209848 -0.0051702 0.866494 -0.495115 -0.0636344
-0.171514 0.0142585 9.90155e-005 -0.807034 -0.590493 -0.00391892
-0.305265 -0.172794 -0.20523 -0.986642 -0.0203755 0.161624
0.0357134 0.0210872 -0.228326 -0.0260695 -0.532305 -0.846151
-0.0538201 -0.0869169 0.0142793 -0.565344 -0.820732 -0.0823752
-0.229471 0.234416 -0.160095 -0.34218 0.175477 -0.923104
-0.0220553 -0.120574 -0.00641241 -0.90284 -0.302837 -0.305239
-0.0311762 -0.10713 0.00167109 -0.834022 -0.533819 -0.139444
-0.0965082 -0.188947 0.00752711 -0.155022 0.845103 0.511633
-0.250562 0.0958519 -0.14425 -0.966832 0.135238 0.216671
-0.157968 -0.204926 0.0151664 -0.0610069 0.647019 0.760029
-0.231187 -0.208237 -0.00973266 -0.528917 0.6283 0.570513
-0.222487 -0.226 0.0126591 -0.462587 0.533849 0.707827
0.191959 0.0135068 -0.154318 0.609315 -0.563991 -0.557359
-0.184186 -0.487879 0.00850075 -0.525107 -0.833969 0.169584
-0.233742 0.00381602 -0.176368 -0.852698 0.516627 -0.0774757
0.291491 0.469187 0.000734432 0.441603 0.227549 0.867875
-0.0826028 -0.00642091 -0.163734 -0.372907 -0.710985 -0.596188
0.188378 0.460694 -0.00573836 -0.618751 0.782725 0.0669967
0.139544 -0.0236114 -0.15918 0.404462 -0.723849 -0.558975
0.279767 0.453812 0.00426004 0.172047 -0.0550488 0.983549
0.271522 0.423068 0.000944958 0.0399134 -0.087688 0.995348
0.264251 0.441318 0.00408297 0.140691 -0.158101 0.977349
0.0947687 0.413499 0.00139587 0.00499678 0.998357 0.0570779
0.1133 0.413909 0.00538924 -0.113599 0.98755 0.108815
0.263406 0.390493 -1.87793e-005 -0.0144777 0.0320571 0.999381
0.245566 0.394523 0.000934289 0.142928 -0.0428092 0.988807
-0.0905778 -0.158395 -0.171187 0.276443 0.949785 -0.146587
0.210884 0.383132 0.0104803 0.412206 -0.0619997 0.908979
0.223913 0.398915 0.00655908 0.337025 -0.114779 0.934473
0.119531 -0.0469023 -0.137096 0.317014 -0.823509 -0.470462
0.00440424 -0.204731 -0.150555 0.677272 0.659543 -0.326045
-0.288535 -0.221869 -0.141673 -0.937594 0.265602 0.224439
0.0375514 -0.309652 -0.167489 0.979438 0.201363 0.0123903
0.0466583 -0.159152 -0.0648697 -0.118306 0.396286 -0.910473
-0.253082 0.121292 0.00469699 -0.679972 -0.382421 0.625613
0.0586059 -0.451924 -0.151037 0.794878 0.334115 -0.506494
-0.196275 0.0583346 0.0185521 -0.844129 -0.495018 0.205922
-0.214498 -0.458779 -0.166467 -0.776559 -0.470792 -0.418701
-0.0432821 -0.382815 -0.263937 0.395407 -0.386322 -0.833311
-0.0155682 -0.0444014 -0.150031 -0.243076 -0.823556 -0.512514
-0.130222 -0.0235261 -0.0429013 -0.639994 -0.751638 -0.159527
-0.0583551 0.0490936 -0.222736 -0.329602 -0.485288 -0.809851
-0.0499983 -0.497194 -0.172388 0.0187089 -0.996409 -0.0825747
0.0144037 0.375423 -0.149765 -0.0926474 0.860136 -0.501579
0.0582684 -0.498831 -0.0684146 0.000117923 -0.999986 -0.00537133
0.211755 0.172309 -0.185909 0.718429 0.0750505 -0.691539
-0.238262 -0.236977 0.0092505 -0.578598 0.473152 0.664343
-0.226072 0.213938 -0.164104 -0.382702 0.0720616 -0.921057
0.115372 -0.452449 0.00781318 0.665469 -0.0854985 0.741513
-0.224888 0.14109 -0.156951 -0.707155 0.147255 -0.691555
0.121841 -0.468386 0.000967375 0.604205 -0.182044 0.775756
0.296451 0.450863 0.00110559 0.357416 0.0709153 0.931249
0.22633 0.0953868 -0.161235 0.775163 -0.172716 -0.607693
0.208271 0.0435064 -0.160086 0.696676 -0.381456 -0.607564
-0.0624717 0.0206644 0.23526 -0.668857 -0.314247 0.673706
0.301948 0.432439 1.60979e-005 0.313262 0.0651294 0.947431
0.28103 0.100818 -0.0392712 0.981907 -0.118142 -0.14799
0.209461 0.221042 -0.176761 0.6958 0.237965 -0.677669
-0.197896 0.243199 0.0097773 -0.957003 0.242674 0.158917
-0.156813 0.00645018 -0.171413 0.792659 -0.515731 -0.325137
0.284672 0.19049 -0.0111057 0.99661 -0.0652886 -0.0500636
-0.246666 -0.0216368 -0.167273 -0.833338 0.337329 0.437901
0.109961 -0.0398772 -0.154358 0.288176 -0.802961 -0.521736
-0.234435 -0.0206919 -0.150775 -0.555582 -0.0267328 0.831032
-0.189338 -0.0177713 -0.147292 0.361853 -0.588399 0.723083
0.226573 0.279287 0.12101 0.776703 0.487116 0.399312
-0.251843 -0.080161 -0.172806 -0.13505 -0.294327 0.946115
-0.211921 -0.0627507 -0.168573 0.423616 -0.535291 0.730762
-0.237884 0.167626 -0.00188663 -0.16531 0.449449 0.877877
0.186215 -0.0238844 0.145245 0.589476 -0.718441 0.369271
-0.234204 -0.0692532 -0.1669 0.0622445 -0.424402 0.903332
-0.222729 -0.15456 -0.15405 -0.280341 0.957992 0.060499
-0.256151 -0.162293 -0.158886 -0.309868 0.74702 0.588169
-0.269306 -0.159185 -0.168772 -0.372781 0.504306 0.778916
0.0211369 -0.240748 -0.162761 0.853555 0.335874 -0.398287
-0.263447 0.137173 0.00212572 -0.633873 -0.201825 0.74664
0.0320776 -0.289216 -0.167832 0.973866 0.225885 -0.02368
0.272743 0.050965 0.0044307 0.938556 -0.344129 -0.0262361
0.248988 0.00591868 -0.00146676 0.819435 -0.57105 -0.0492823
0.170373 -0.0707735 -0.00787179 0.676508 -0.726549 -0.120263
0.150496 -0.104643 0.00127055 0.939629 -0.233674 -0.249988
0.147028 -0.123182 -0.00372 0.931102 0.00120394 -0.364757
-0.192662 -0.489134 -0.160885 -0.498819 -0.819371 -0.282508
-0.101018 -0.180668 -0.00782689 -0.0226853 0.881225 0.472153
0.168204 -0.193886 0.00871605 0.941709 0.22976 -0.245752
0.170922 -0.227162 -0.00239791 0.948937 0.0705633 -0.307472
-0.0951034 0.309557 -0.177343 -0.470787 0.619899 -0.627762
-0.129784 0.295991 -0.161147 -0.518557 0.592002 -0.616954
-0.154926 0.275217 -0.161128 -0.354726 0.550711 -0.75557
-0.185648 0.2648 -0.159804 -0.143097 0.459934 -0.876347
0.219574 0.231444 -0.161958 0.731465 0.252236 -0.633511
0.122296 -0.399393 -0.00524146 0.945626 0.0644945 0.318797
-0.280861 -0.0830077 -0.187346 -0.762651 0.196108 0.616364
-0.201635 -0.476622 -0.00638179 -0.704194 -0.667264 0.242632
-0.0148898 -0.494101 -0.0090424 -0.0778712 -0.950737 -0.300057
-0.223489 0.19452 -0.165831 -0.426076 -0.0171564 -0.904525
-0.142882 -0.436529 -0.244061 -0.247764 -0.487477 -0.837245
-0.200693 0.140659 -0.175522 -0.380248 0.304468 -0.873333
0.319255 0.326249 -0.00071322 0.904291 -0.0617262 0.422431
-0.21032 0.220441 -0.011128 -0.712422 0.222353 0.665593
0.136342 0.323395 -0.17426 0.395419 0.58635 -0.706992
-0.276461 0.168888 -0.00468748 -0.387535 0.0539873 0.920273
0.266598 0.0366631 -0.00192354 0.904824 -0.422782 -0.0504954
0.192871 0.0307978 -0.168187 0.626877 -0.45534 -0.632211
-0.131394 -0.0261878 -0.0248939 -0.648691 -0.749508 -0.132055
-0.152642 0.0242131 -0.179633 0.651509 -0.405119 -0.641416
0.192565 -0.0538707 0.0128254 0.637078 -0.770503 -0.0213777
0.0678311 -0.0468272 -0.160108 0.109055 -0.841916 -0.528474
-0.255172 -0.0406945 -0.16881 -0.766093 0.194498 0.612594
-0.219522 -0.0776259 -0.175867 0.432634 -0.520543 0.736113
0.112808 -0.176295 -0.0577934 0.492596 0.307917 -0.813964
-0.0564571 -0.0825015 -0.00363067 -0.5339 -0.834181 -0.138177
-0.236657 -0.156352 -0.166353 -0.0626711 0.848206 0.525946
0.16956 -0.209242 0.00179819 0.940772 0.17925 -0.287782
0.16511 -0.232075 -0.0177223 0.9022 0.055001 -0.427797
-0.268321 -0.143314 -0.175919 -0.200562 0.290586 0.935593
-0.285703 -0.315081 -0.146151 -0.954045 -0.23579 -0.184933
0.283332 0.0907965 0.020078 0.985221 -0.17089 0.0116493
-0.0731262 -0.165657 -0.179765 0.348674 0.916601 -0.195623
-0.288347 -0.18213 -0.169589 -0.741546 0.313233 0.593292
-0.294337 -0.245299 -0.166987 -0.996794 -0.0796366 0.00774655
-0.253167 -0.254781 0.00585955 -0.699611 0.348824 0.623592
-0.248283 -0.399737 -0.0012144 -0.802136 -0.418317 0.426132
0.251866 0.0517627 0.125134 0.866046 -0.353875 0.353181
-0.233677 -0.42663 -0.164639 -0.816336 -0.448212 -0.364282
-0.150949 -0.4956 -0.0298605 0.0349634 -0.999319 -0.0117891
0.16738 0.060225 -0.204775 0.543163 -0.313209 -0.779022
-0.0993138 -0.497504 -0.154487 0.00635529 -0.999308 0.0366476
0.0541212 0.363656 -0.166264 0.10955 0.789293 -0.604166
-0.0376444 0.34242 -0.177777 -0.314792 0.733705 -0.602149
-0.166138 -0.495979 -0.0163366 -0.0963392 -0.99425 0.0467529
-0.164452 -0.495395 0.00377229 -0.173742 -0.983712 0.0460976
0.269285 0.4989 -0.0153435 0.142359 0.988122 0.0578662
0.200084 0.207391 -0.190539 0.666866 0.208602 -0.715384
-0.0268107 0.354556 -0.167524 -0.280694 0.781652 -0.556984
0.227353 0.178322 -0.167328 0.782083 0.0964 -0.615673
0.232607 0.488863 -0.00275388 -0.351176 0.8752 0.332716
-0.211902 0.148084 -0.167344 -0.551682 0.134675 -0.82311
0.0352559 -0.303844 -0.184716 0.972818 0.19055 -0.131591
-0.249066 0.0924798 -0.176861 -0.915853 0.168993 -0.364218
-0.24861 0.0696213 -0.171888 -0.900045 -0.341896 -0.270233
0.20688 0.0783054 -0.178013 0.690954 -0.240036 -0.681884
-0.225046 0.0443993 -0.176679 -0.780964 -0.407465 -0.473357
-0.222217 0.0236363 -0.178493 -0.888663 0.291401 -0.354066
0.145272 0.426256 -0.00477225 -0.523169 0.847879 0.0860009
0.140168 0.42338 -0.0239676 -0.476226 0.877347 -0.0589195
0.149406 -0.00866502 -0.16907 0.45375 -0.652192 -0.607252
-0.099538 0.0189722 -0.180078 -0.387643 -0.619283 -0.682804
0.0177342 -0.498155 -0.145674 0.0106723 -0.999719 -0.021163
-0.165943 -0.0102313 -0.177925 0.882946 -0.45886 -0.0992707
0.0793646 0.414614 -0.0107937 0.0262606 0.999653 0.00192103
0.0919767 0.41419 -0.0206444 -0.00594656 0.998473 -0.0549251
-0.244814 -0.0134611 -0.183602 -0.830532 0.556944 -0.00538381
-0.00692974 -0.0276863 -0.177815 -0.233678 -0.739778 -0.63097
0.325312 0.386123 -0.0158537 0.976565 0.0265209 0.213583
0.321009 0.401484 -0.00693997 0.787187 0.111711 0.606513
-0.113425 0.326829 0.120791 -0.605463 0.671061 0.427891
0.322922 0.330995 -0.0204959 0.989439 -0.143285 0.0219084
-0.048703 -0.348053 -0.278471 0.357865 -0.224364 -0.906418
0.305616 0.259745 -0.00953838 0.948568 -0.316269 -0.0138515
-0.236672 -0.0849515 -0.174999 0.153253 -0.420187 0.894403
0.300484 0.245509 -0.00697983 0.934193 -0.356584 -0.0114331
-0.221224 0.201225 -0.0108951 -0.479706 0.301818 0.823886
-0.229934 -0.128366 -0.191474 0.770553 0.151452 0.61912
0.277762 0.0927428 -0.0509277 0.97002 -0.14856 -0.192332
-0.266845 0.185217 -0.00917026 0.011008 0.317875 0.948069
0.106124 -0.312065 0.125727 0.48134 -0.626575 0.612956
-0.170918 -0.00482203 -0.195077 0.821267 -0.186132 -0.539328
0.142662 -0.139625 -0.0163147 0.851105 0.129667 -0.50873
0.123687 0.00785791 -0.200521 0.35989 -0.572374 -0.736795
0.137134 -0.460871 -0.0102946 0.659347 -0.0152546 0.751684
-0.0917639 0.238573 -0.221997 -0.473011 0.268985 -0.838992
0.275477 0.165443 0.0826578 0.956768 0.0913365 0.276137
-0.282526 -0.167913 -0.17188 -0.5859 0.374898 0.718452
0.121119 -0.487917 -0.00668261 0.42487 -0.650646 0.629401
0.0254593 -0.269562 -0.174208 0.946984 0.286381 -0.145629
-0.233977 -0.436779 -0.149746 -0.841319 -0.455006 -0.291808
0.0596283 -0.498479 -0.0149892 0.0225735 -0.999341 0.0284243
0.0410414 -0.498746 -0.0271626 -0.0126833 -0.99989 0.00774003
0.188299 0.46 -0.0233338 -0.618874 0.779894 -0.0936017
-0.21727 0.330853 -0.0110384 -0.210246 0.338384 0.91722
0.0383055 -0.460016 -0.183392 0.707897 0.142768 -0.691737
-0.0670009 -0.497618 -0.170883 0.0254883 -0.998732 -0.0434204
-0.0228042 -0.185321 -0.154122 0.496287 0.846824 -0.191281
-0.257657 0.201237 -0.015826 0.0552397 0.309076 0.949432
0.00188757 0.36593 -0.162039 -0.146385 0.819283 -0.554389
0.276615 0.0630728 -0.00606262 0.958471 -0.281178 -0.0476696
-0.0496076 0.330555 -0.184824 -0.34573 0.690342 -0.635531
0.198997 -0.0473221 -0.00757761 0.645241 -0.759662 -0.0810972
0.160129 0.290195 -0.184192 0.493463 0.467189 -0.733641
0.150473 -0.154491 -0.00787134 0.87121 0.243916 -0.426027
-0.130369 0.265239 -0.18447 -0.532999 0.438313 -0.723736
-0.203973 -0.199824 -0.000314282 -0.307938 0.701076 0.64317
-0.171167 0.227789 -0.17799 -0.347465 0.265845 -0.899219
-0.194698 0.180143 -0.177247 -0.365434 0.0116778 -0.930764
0.0350772 0.205037 -0.263054 0.0465483 0.164604 -0.985261
-0.215958 -0.196688 -0.0109164 -0.405017 0.704276 0.583058
-0.186148 0.149404 -0.180468 -0.397857 0.0598052 -0.915496
-0.18666 0.129286 -0.18387 -0.169088 0.317035 -0.933219
-0.205279 0.124781 -0.185475 -0.131945 0.666655 -0.733595
-0.260369 -0.235889 -0.0164346 -0.739113 0.435615 0.513762
-0.224317 0.121211 -0.182768 -0.419767 0.738037 -0.528297
-0.0670761 -0.322286 0.0945961 -0.71331 -0.131298 0.68844
0.163574 -0.254593 -0.0200984 0.901943 -0.0898072 -0.422413
-0.135443 0.0453935 -0.18482 -0.108326 -0.421775 -0.900206
0.181589 0.0177888 -0.168769 0.56434 -0.539276 -0.625062
0.169485 -0.248898 -0.00655404 0.946894 -0.0784354 -0.311832
-0.278678 -0.345828 -0.0277967 -0.942401 -0.187015 0.277319
-0.258779 -0.393553 -0.0174777 -0.850962 -0.421266 0.313687
0.138152 0.000329399 -0.185796 0.419438 -0.616488 -0.666344
-0.161726 0.0100633 -0.18716 0.825665 -0.261728 -0.499776
-0.156882 0.0223561 0.108298 -0.854772 -0.378696 0.354899
0.0466697 -0.0476824 -0.161051 0.00982396 -0.849935 -0.526796
0.157059 0.435535 -0.0145143 -0.600906 0.799297 -0.00598713
0.0186418 0.412486 -0.0203801 -0.117349 0.991954 -0.0474971
-0.265589 -0.0508396 -0.179618 -0.816921 0.293946 0.496221
-0.0919431 0.375947 -0.00744563 -0.46438 0.885573 -0.0105124
-0.239877 0.330469 -0.104833 -0.0464242 0.741483 -0.669363
0.0522626 0.204442 -0.261764 0.120769 0.171633 -0.977731
0.0862318 0.382321 -0.129718 0.152054 0.85671 -0.492877
-0.197379 0.293097 -0.141232 -0.0330425 0.587782 -0.808344
-0.24139 -0.119784 -0.182032 0.367145 0.0573076 0.928397
-0.199766 0.249659 -0.0063999 -0.837068 0.169974 0.520024
-0.224489 0.0810458 -0.0383477 -0.752073 -0.659075 -0.00230068
-0.204366 0.273441 -0.153077 -0.122279 0.45893 -0.880017
-0.301666 0.230832 -0.0197228 -0.322411 0.036014 0.945915
0.00217172 0.193979 -0.263119 -0.134149 0.123762 -0.983202
0.205143 0.285576 -0.151958 0.60067 0.298553 -0.741661
-0.174952 -0.364861 -0.265962 -0.427454 -0.326747 -0.842923
-0.234033 -0.140138 -0.177867 0.387607 0.511831 0.766674
-0.23672 -0.00441334 -0.161768 -0.876861 0.34659 0.333152
-0.161616 0.0102805 -0.0719941 -0.666318 -0.739257 -0.0975703
-0.0371041 -0.18065 -0.17079 0.477156 0.855665 -0.200397
-0.295826 -0.232711 -0.176733 -0.99411 -0.0964069 0.0494993
0.010951 -0.231788 -0.180113 0.848926 0.441409 -0.29066
-0.293502 -0.259957 -0.154628 -0.996416 -0.0712833 -0.0455312
-0.290038 0.216484 -0.0173544 -0.106797 0.154145 0.982259
-0.269062 0.218065 -0.0198265 0.08579 0.237022 0.967709
0.00240592 0.410099 -0.0102842 -0.173105 0.98486 -0.00923643
-0.26905 -0.335575 -0.182767 -0.876754 -0.323481 -0.355898
0.285231 0.125913 -0.0196739 0.994929 -0.0387188 -0.0928261
-0.188431 0.263977 0.0331166 -0.933743 0.32362 0.152951
0.00558207 -0.496635 -0.180972 0.107771 -0.964907 -0.239456
-0.16257 -0.494965 -0.180085 -0.216774 -0.9474 -0.235462
-0.250465 0.11077 -0.0093988 -0.74493 -0.645754 0.167576
0.186794 0.245707 -0.187719 0.613107 0.321224 -0.721745
-0.153026 0.232661 -0.185115 -0.466726 0.29286 -0.834506
-0.171126 0.204369 -0.183746 -0.381398 0.17618 -0.907467
0.209502 0.157263 -0.18883 0.707848 0.0115089 -0.706271
-0.201231 0.0598179 0.000655825 -0.806855 -0.566263 0.168317
-0.158541 0.00183519 -0.0371741 -0.715912 -0.690615 -0.102569
-0.101881 -0.0486321 -0.0273744 -0.591598 -0.791464 -0.153615
-0.208243 0.113392 -0.199159 0.0135596 0.631008 -0.775658
-0.101824 -0.0537022 -0.000888922 -0.592633 -0.796101 -0.122516
-0.0532122 -0.170579 -0.006644 -0.404382 0.902766 0.14659
-0.238663 0.111728 -0.178272 -0.735289 0.543601 -0.404782
0.200729 0.0932609 -0.188582 0.670671 -0.190311 -0.716926
-0.148038 -0.191471 0.00336939 -0.0669119 0.720482 0.690238
0.068068 -0.0634329 -0.130323 0.103898 -0.879111 -0.465155
-0.235671 0.0578085 -0.181854 -0.658822 -0.586752 -0.470825
0.198608 0.0467943 -0.17274 0.662404 -0.362664 -0.655512
0.161808 -0.193778 -0.00887192 0.88802 0.238906 -0.392868
-0.120157 0.0403025 -0.186171 -0.307215 -0.509334 -0.803865
-0.210857 0.0343577 -0.189969 -0.612677 0.147205 -0.776504
0.16465 -0.272325 -0.00841697 0.926413 -0.241831 -0.288578
-0.285698 -0.293552 -0.0398533 -0.962049 0.028412 0.271393
-0.280296 -0.28049 -0.0267867 -0.924143 0.108513 0.366313
-0.163535 0.0314781 -0.195572 0.575048 -0.0509511 -0.816531
0.134542 -0.497411 -0.0382139 0.174033 -0.966633 0.187971
0.13645 -0.490748 -0.0212061 0.44592 -0.705301 0.551095
0.123622 0.41624 -0.029397 -0.238022 0.965681 -0.103951
-0.273585 -0.0896972 -0.264835 -0.620375 0.463623 -0.632605
0.325522 0.369779 -0.0249653 0.999802 -0.0127427 -0.0152775
-0.0451759 -0.242254 -0.264696 0.446053 0.48172 -0.754309
0.316693 0.303547 -0.0308652 0.966859 -0.222729 -0.124803
-0.278542 0.314921 -0.0244283 -0.0329394 -0.0169397 0.999314
-0.30668 0.287722 -0.0247767 -0.282624 0.051214 0.957863
-0.288438 0.285751 -0.0245489 0.0419892 0.0181038 0.998954
-0.0221394 -0.191095 -0.173853 0.568102 0.783259 -0.252519
-0.298367 0.26931 -0.023559 -0.0700059 0.0668205 0.995306
-0.273808 -0.338345 -0.166973 -0.907758 -0.312728 -0.279602
0.234243 0.130705 -0.158244 0.809408 -0.0773267 -0.582133
-0.259003 0.235378 -0.0242733 0.0576258 0.157736 0.985798
-0.247395 0.218811 -0.0213515 -0.0317319 0.235253 0.971416
-0.099451 -0.0378739 0.138492 -0.593772 -0.716378 0.366383
0.283974 0.142946 -0.0325854 0.99223 0.0146368 -0.12355
0.0049412 0.352454 -0.180592 -0.114951 0.763083 -0.635996
0.2845 0.15923 -0.021432 0.995058 0.044861 -0.0885791
0.0336417 0.345102 -0.190465 0.0443174 0.719724 -0.692845
0.100435 0.332505 -0.184606 0.308452 0.639161 -0.704507
-0.069567 0.306098 -0.197553 -0.402319 0.591631 -0.69865
-0.272901 0.138148 -0.0140568 -0.81844 -0.509762 0.26514
-0.199914 0.0541902 -0.0179697 -0.789453 -0.607483 0.0879135
-0.111302 -0.0436234 -0.0160109 -0.601147 -0.78572 -0.145833
0.148828 -0.169224 -0.0196075 0.817246 0.26411 -0.512206
-0.137041 -0.171438 -0.0229184 0.00931237 0.865748 0.500393
0.191785 0.279065 -0.166669 0.59796 0.377731 -0.706939
-0.175487 0.0995726 -0.190427 0.180639 0.156361 -0.971041
0.140848 -0.321974 -0.0174086 0.871287 -0.44063 -0.216112
-0.161734 -0.38091 -0.266016 -0.367064 -0.356599 -0.859128
-0.23491 -0.43939 -0.0264548 -0.823501 -0.497278 0.27306
-0.243448 -0.423987 -0.0233949 -0.817297 -0.503751 0.27975
0.0693705 0.201285 -0.259534 0.201101 0.163982 -0.965748
-0.111519 -0.0281881 -0.0871511 -0.578517 -0.787863 -0.211162
0.184483 0.0434931 -0.18391 0.60303 -0.383344 -0.699573
-0.115351 -0.497161 -0.0174169 0.109366 -0.993748 0.0224673
0.249532 0.496647 -0.0118621 -0.19563 0.972976 0.122662
0.173102 0.447887 -0.0173198 -0.625922 0.778739 -0.042285
-0.262901 -0.0955654 -0.276361 -0.302516 0.413518 -0.858771
-0.157146 0.128013 -0.194281 -0.46512 -0.0545913 -0.883563
-0.267014 0.356975 -0.0375649 -0.0289844 0.925606 0.377378
0.122147 -0.00709794 -0.188249 0.360822 -0.647838 -0.670905
-0.260129 -0.395947 -0.13169 -0.888893 -0.417321 -0.188979
-0.273926 0.35083 -0.0737499 -0.138979 0.859717 -0.491499
-0.193667 -0.0543319 -0.180252 0.712635 -0.608956 0.348316
-0.297022 0.344128 -0.0305563 -0.369997 0.526819 0.765221
0.28359 0.170352 0.0406465 0.992627 0.0545278 0.10825
-0.298446 0.324906 -0.0260808 -0.239073 0.153717 0.958757
-0.316866 0.302569 -0.0303418 -0.665673 0.123841 0.735896
0.217388 0.026364 -0.13525 0.7144 -0.496207 -0.493368
-0.221158 -0.143996 -0.192171 0.555643 0.708119 0.435692
-0.11482 0.27479 0.17008 -0.590562 0.395337 0.703523
-0.159081 -0.00136278 -0.00446827 -0.755204 -0.653193 -0.0548339
0.244263 0.00512708 -0.0337563 0.797671 -0.58359 -0.152133
-0.0104071 -0.204976 -0.184385 0.660339 0.681567 -0.315307
0.25149 0.0118225 -0.0187866 0.832472 -0.543973 -0.105276
-0.076176 -0.0673309 -0.0250936 -0.532258 -0.834169 -0.144441
-0.0896029 -0.0601359 -0.0143037 -0.564234 -0.813355 -0.141755
0.0202 -0.408677 -0.180685 0.82855 -0.154236 -0.538252
0.00920009 -0.4185 -0.190699 0.710229 -0.129256 -0.692002
0.0254023 -0.44796 -0.191129 0.564624 0.296009 -0.77044
0.0572021 0.185716 -0.263661 0.143943 0.108355 -0.983636
-0.180455 -0.488598 -0.179168 -0.452132 -0.804531 -0.385107
-0.104314 -0.172055 -0.0244684 0.0554393 0.89934 0.43372
0.151512 -0.457702 -0.0244168 0.772251 0.142245 0.619189
0.0192207 0.406649 -0.0636753 -0.108627 0.973933 -0.199136
0.147881 -0.476092 -0.0213927 0.668126 -0.242149 0.703542
0.017926 0.364658 -0.16674 -0.0551706 0.807245 -0.587632
0.275944 0.491911 -0.0320967 0.254019 0.853706 -0.4546
0.132351 0.311835 -0.185884 0.40696 0.55402 -0.726254
-0.0975889 0.207346 -0.226809 -0.47292 0.182515 -0.861995
-0.137943 0.246526 -0.188983 -0.515178 0.351067 -0.781885
0.204689 0.187024 -0.19095 0.690845 0.134985 -0.71029
-0.112796 0.302466 -0.169789 -0.519756 0.593879 -0.614135
-0.17162 0.117815 -0.188006 -0.158609 0.121726 -0.979809
0.0585454 0.414935 -0.0123907 -0.00432233 0.999926 -0.0113981
-0.120707 0.311589 -0.153313 -0.516999 0.657081 -0.548595
-0.0650369 0.385396 -0.0452205 -0.40302 0.901241 -0.159183
0.120877 0.40435 0.0476908 0.180593 0.928429 0.324662
-0.19332 0.0989153 -0.201317 0.411389 0.30176 -0.860058
-0.241455 0.0755908 -0.18891 -0.787749 -0.216152 -0.576828
0.103159 0.406399 0.0522698 0.144983 0.963293 0.225936
-0.156876 0.0707403 -0.190992 0.0877729 -0.02314 -0.995872
0.0291073 -0.498643 -0.0454683 -0.0843972 -0.996272 0.0178534
0.0836793 0.412764 0.0189247 0.0454997 0.995895 0.0782456
-0.107604 0.0477951 -0.197338 -0.414137 -0.473975 -0.77707
-0.216406 0.0511591 -0.190236 -0.460738 -0.48022 -0.746397
-0.319071 0.273361 -0.0294111 -0.683983 0.0172377 0.729294
0.294747 0.235904 -0.0286346 0.918536 -0.365863 -0.149788
0.203103 -0.0414642 -0.0244927 0.653272 -0.745659 -0.131257
-0.0209079 -0.105216 -0.0305008 -0.620476 -0.643473 -0.448276
0.00716605 -0.119299 -0.0441514 -0.557824 -0.376514 -0.739641
-0.264533 -0.227143 -0.0317715 -0.772045 0.471341 0.426362
0.0911586 -0.0194381 -0.189258 0.220539 -0.707959 -0.670937
0.0728684 -0.0261761 -0.186808 0.136653 -0.742972 -0.655225
0.155815 -0.255256 -0.0339386 0.860233 -0.0809675 -0.503431
-0.179748 -0.0429106 -0.188198 0.849264 -0.527713 0.0164238
0.123343 -0.382244 -0.036488 0.983918 0.151332 -0.0948945
-0.293698 -0.119905 -0.192708 -0.735516 0.163411 0.657505
-0.262827 -0.396564 -0.0382225 -0.876633 -0.446385 0.179595
-0.212636 -0.470425 -0.0226263 -0.747047 -0.608615 0.267411
-0.276775 -0.370304 -0.0958552 -0.931348 -0.353899 -0.0857042
-0.287278 -0.153101 -0.180597 -0.565854 0.237605 0.789527
0.106313 0.251345 -0.233074 0.345429 0.350784 -0.870419
-0.297797 -0.169351 -0.185465 -0.809138 0.181895 0.558757
-0.30049 -0.185446 -0.187226 -0.927953 0.0646164 0.367053
0.0635791 0.167765 -0.264069 0.177627 0.0684305 -0.981716
0.0190171 -0.251457 -0.178888 0.913877 0.32855 -0.238502
-0.0803716 -0.424224 -0.252884 0.191289 -0.530837 -0.825603
-0.170436 -0.496109 -0.0389164 -0.0601794 -0.998087 0.0141972
0.245042 0.486359 -0.0422157 -0.17243 0.864553 -0.472033
0.0283534 -0.392032 -0.176873 0.891098 -0.287181 -0.351384
0.210986 0.472435 -0.0405755 -0.489294 0.822081 -0.291159
0.188207 0.451968 -0.0538731 -0.545664 0.77716 -0.313486
0.00212429 -0.491503 -0.196782 0.131096 -0.747075 -0.651685
0.325692 0.400122 -0.0276137 0.998712 0.0422419 -0.0280951
-0.0970603 -0.497084 -0.187925 0.0162015 -0.9937 -0.110895
0.068099 0.327163 -0.200994 0.201872 0.62807 -0.751516
-0.276254 -0.110492 -0.181982 -0.376412 0.0640301 0.924237
0.170971 0.2523 -0.197395 0.5559 0.3496 -0.754158
-0.320997 0.240064 -0.0467949 -0.981387 -0.192031 0.00216182
-0.139902 0.226931 -0.195071 -0.525912 0.261596 -0.809311
0.192374 0.19066 -0.201329 0.637448 0.152216 -0.755308
-0.244205 0.145935 -0.136518 -0.787883 -0.303507 -0.53584
-0.29778 0.17827 -0.0431784 -0.877875 -0.472149 -0.0800708
-0.289707 0.162619 -0.0315011 -0.858736 -0.512418 0.000911059
0.281939 0.164413 -0.0399215 0.988122 0.0393269 -0.148553
-0.169708 0.0831656 -0.192594 0.20127 0.0999671 -0.974421
0.184819 0.089315 -0.201534 0.613133 -0.203786 -0.763243
-0.141075 0.0776179 -0.195002 -0.295545 -0.223102 -0.928913
0.075137 0.180495 -0.260858 0.226392 0.0929134 -0.969595
-0.11526 -0.0367431 -0.0362817 -0.605148 -0.780745 -0.155672
-0.226856 0.0654966 -0.198054 -0.483279 -0.47671 -0.734295
-0.0619252 -0.0738553 -0.0377218 -0.517826 -0.843647 -0.141835
0.201626 -0.00525016 -0.118635 0.637586 -0.636509 -0.433982
-0.247113 -0.0987123 -0.178651 0.140606 -0.226901 0.963715
-0.131564 -0.161602 -0.0427779 0.0536438 0.921899 0.383698
-0.0872999 -0.174396 -0.0219159 0.0264465 0.922661 0.384705
0.13999 -0.17511 -0.0339588 0.738299 0.259138 -0.622705
0.129292 -0.160998 -0.0400794 0.673055 0.241258 -0.699136
-0.182288 0.029303 -0.202658 0.122297 0.244658 -0.961866
-0.227551 -0.183847 -0.0391963 -0.501334 0.748165 0.434642
0.167167 0.0419431 -0.196795 0.533048 -0.395807 -0.747795
0.0502986 -0.0650632 -0.129292 0.0198864 -0.88377 -0.467499
-0.213664 0.0175127 -0.19924 -0.553688 0.585146 -0.592482
-0.0567543 0.000505572 -0.185655 -0.321994 -0.674533 -0.664323
-0.171661 0.015315 -0.200128 0.609455 -0.0390879 -0.791857
0.14855 -0.266466 -0.0434085 0.810637 -0.124645 -0.572129
-0.277202 -0.363628 -0.0404109 -0.938339 -0.292928 0.183612
-0.25381 -0.410425 -0.0311911 -0.85149 -0.476331 0.219257
0.161142 -0.455085 -0.0409527 0.881186 0.281843 0.379574
0.0637417 -0.0733256 -0.112318 0.0825074 -0.880597 -0.466629
-0.215283 -0.0976872 -0.197252 0.809433 -0.430641 0.399207
-0.221462 -0.113814 -0.202372 0.875405 -0.204785 0.437868
0.129096 -0.498873 -0.0564431 0.0404313 -0.998461 0.0379617
0.221304 0.469849 -0.0571803 -0.339268 0.809738 -0.478771
0.229032 0.480668 -0.0425102 -0.352036 0.851619 -0.38835
-0.170136 -0.153997 -0.193595 0.0070891 0.956305 -0.292286
-0.0333885 0.397363 -0.048812 -0.31776 0.932456 -0.171911
-0.0634863 -0.173315 -0.194103 0.398262 0.870915 -0.287915
-0.0777407 0.381774 -0.0317689 -0.428196 0.897318 -0.107091
0.0332777 -0.313022 -0.199576 0.953107 0.0965404 -0.286822
-0.0514428 -0.077432 -0.0512488 -0.459403 -0.85846 -0.228027
-0.266498 -0.07247 -0.176084 -0.577203 0.021466 0.816319
-0.151164 -0.166719 -0.0311661 -0.0243236 0.883865 0.46711
-0.165776 -0.161837 -0.0429132 -0.084748 0.910467 0.404806
-0.201444 -0.172942 -0.0349784 -0.297908 0.836422 0.460052
0.147929 -0.22663 -0.0440295 0.761124 0.14871 -0.631329
-0.00911933 0.176942 -0.262832 -0.190516 0.0642465 -0.979579
-0.221676 -0.416155 -0.195983 -0.735411 -0.4428 -0.512932
-0.0122156 0.157548 -0.262965 -0.192596 0.00321827 -0.981273
0.128206 -0.400134 -0.0344419 0.93958 0.341903 0.017083
0.304687 0.286108 -0.0585446 0.893357 -0.261233 -0.36561
0.281176 0.17483 0.0558251 0.981505 0.0630922 0.180741
-0.0276887 -0.493904 -0.193084 -0.0605114 -0.811762 -0.580845
-0.132973 -0.497174 -0.1822 -0.0375436 -0.9948 -0.0946773
-0.147472 -0.494107 -0.193688 -0.179583 -0.928241 -0.325758
-0.27106 0.137899 -0.0438841 -0.793366 -0.59392 -0.133527
-0.234277 0.0918094 -0.029152 -0.734859 -0.678159 0.0090757
-0.102945 0.264131 -0.204893 -0.506139 0.395206 -0.766574
0.197895 0.169714 -0.199575 0.668055 0.064843 -0.741281
-0.12166 -0.0244625 -0.0710749 -0.614079 -0.769182 -0.176824
-0.227133 0.107671 -0.197439 -0.490549 0.512639 -0.704672
-0.0908645 -0.0548396 -0.0370888 -0.573424 -0.803715 -0.158831
-0.143581 0.115414 -0.200665 -0.51277 -0.127382 -0.849024
-0.220395 -0.473026 -0.0544024 -0.763629 -0.62941 0.143921
-0.209036 -0.482 -0.042376 -0.645236 -0.740804 0.186759
-0.266191 -0.396829 -0.0756393 -0.897236 -0.441551 -0.000220296
-0.15685 0.151167 -0.19599 -0.514381 -0.0151114 -0.857428
0.30194 0.45237 -0.0528704 0.671081 0.445055 -0.592939
-0.174278 0.0642559 -0.196007 0.241644 0.0695166 -0.967872
0.0694136 0.411586 -0.0437511 0.0226303 0.985857 -0.166053
-0.196397 0.043418 -0.195202 -0.232478 -0.00647761 -0.97258
-0.0179899 -0.0343312 -0.164525 -0.267302 -0.77952 -0.566479
0.279042 0.126865 -0.0603277 0.97511 -0.0328721 -0.219273
-0.211383 0.0663579 -0.0292804 -0.754614 -0.653492 0.0592171
-0.123297 0.235612 -0.203515 -0.530526 0.280861 -0.799787
0.146942 0.0322019 -0.204255 0.448703 -0.446333 -0.774243
-0.133219 -0.0170745 -0.060031 -0.644974 -0.747073 -0.160906
-0.0173109 -0.0110508 -0.191463 -0.256632 -0.680914 -0.685928
0.188825 -0.0528303 -0.026896 0.61215 -0.776215 -0.150873
0.0383457 -0.0364237 -0.177464 -0.0405052 -0.786192 -0.616653
0.00941705 -0.498622 0.0338506 -0.00185106 -0.999811 -0.0193755
-0.19069 -0.0516204 -0.20037 0.843258 -0.504548 -0.185332
-0.275471 -0.0620653 -0.190862 -0.849875 0.392551 0.351591
-0.205867 -0.0822465 -0.207571 0.924061 -0.381468 0.0243584
0.11111 -0.117022 -0.0504668 0.507854 -0.223477 -0.831951
0.104177 -0.146716 -0.0536962 0.415518 0.148143 -0.89744
-0.21884 -0.133435 -0.204843 0.871719 0.31366 0.376461
-0.148906 -0.157473 -0.0518783 0.00202462 0.934877 0.354965
0.0374325 0.414168 -0.0111623 -0.0603732 0.998125 -0.0101232
-0.292502 -0.277557 -0.144533 -0.990451 -0.103801 -0.0907319
-0.25099 -0.132093 -0.178669 0.0583553 0.220233 0.9737
-0.302095 -0.155596 -0.196753 -0.886557 0.0961669 0.452514
-0.293295 -0.246339 -0.188322 -0.971677 -0.210016 -0.108342
0.0350162 0.41351 0.00807732 -0.0641468 0.996766 0.048405
0.00146988 -0.411945 -0.206758 0.708869 -0.467845 -0.527851
-0.00586191 -0.428045 -0.202198 0.611707 -0.198794 -0.765699
0.151791 -0.490422 -0.0344937 0.567266 -0.685385 0.456572
0.0458817 -0.49886 -0.0503152 -0.00410699 -0.999987 0.00288659
0.239193 0.473917 -0.0591993 -0.138147 0.794999 -0.590671
-0.225915 -0.0948245 -0.182868 0.471302 -0.436538 0.766361
-0.203956 -0.153662 -0.0978765 -0.321923 0.928219 0.186481
0.307852 0.436238 -0.05641 0.752685 0.346177 -0.560024
0.317178 0.416468 -0.0529276 0.873511 0.192379 -0.44718
-0.172207 -0.472439 -0.206506 -0.50611 -0.563419 -0.653002
0.00621408 -0.474652 -0.203443 0.250888 -0.175369 -0.951998
-0.285139 -0.328722 -0.130614 -0.954763 -0.250961 -0.15952
-0.0677756 0.380026 -0.0642224 -0.411378 0.886149 -0.213325
-0.3248 0.297204 -0.0477878 -0.990776 0.107931 0.0819344
-0.247882 0.111547 -0.0590888 -0.778691 -0.611213 -0.141633
-0.212272 0.0669632 -0.0472578 -0.762034 -0.64725 -0.019296
-0.0262436 0.166771 -0.259617 -0.238768 0.0410244 -0.97021
0.178593 -0.0556663 -0.045784 0.570391 -0.789176 -0.227717
0.11425 0.309877 -0.196968 0.359799 0.557891 -0.747865
-0.0781526 0.289605 -0.205058 -0.433139 0.514433 -0.740101
-0.110306 -0.160143 -0.0529959 0.0926443 0.945377 0.312537
0.127798 0.299224 -0.197474 0.406254 0.520511 -0.751017
0.183629 0.177586 -0.210576 0.599626 0.0997127 -0.794044
0.184434 0.140729 -0.210373 0.59931 -0.0663262 -0.797764
-0.145061 0.137431 -0.202995 -0.544351 -0.0768857 -0.835327
-0.215193 -0.174295 -0.0438264 -0.400258 0.81747 0.414169
-0.211898 0.0965865 -0.208444 -0.0642711 0.278579 -0.95826
0.134631 -0.201739 -0.0507882 0.669816 0.249081 -0.699504
-0.19867 0.0797753 -0.208784 0.295431 -0.0898588 -0.951129
-0.264845 -0.205968 -0.0642105 -0.776344 0.562424 0.284552
-0.286458 -0.31317 -0.0447306 -0.974117 -0.0495774 0.220539
-0.290079 -0.313996 -0.06495 -0.98834 -0.0911004 0.122006
-0.249525 -0.426414 -0.0593499 -0.872943 -0.480074 0.0865984
0.161207 -0.44561 -0.0568805 0.875387 0.467724 0.122195
-0.222946 0.000861546 -0.210821 -0.523438 0.671904 -0.523983
0.0956326 0.147463 0.241943 0.571993 0.653146 0.49621
0.159537 0.433238 -0.0463518 -0.578672 0.789333 -0.205164
-0.172742 -0.0237388 -0.186052 0.92431 -0.371659 -0.0867192
0.0842122 0.329618 -0.193598 0.262207 0.63556 -0.726162
-0.0818724 0.377104 -0.0475643 -0.433562 0.885044 -0.169474
0.317542 0.333556 -0.052694 0.935353 -0.121488 -0.332197
-0.321337 0.273627 -0.0655925 -0.94054 -0.0441517 -0.336801
-0.206823 -0.146775 -0.204671 0.536967 0.839959 0.0783273
-0.315149 0.223069 -0.0568652 -0.945166 -0.2754 -0.175546
0.00124416 -0.235286 -0.212351 0.750163 0.519002 -0.409747
-0.278332 0.151081 -0.0563664 -0.804332 -0.569186 -0.170517
-0.284083 0.163786 -0.0690763 -0.823249 -0.52861 -0.206963
0.0883882 -0.134356 -0.0576798 0.25709 0.00497414 -0.966375
-0.265219 -0.397588 -0.093724 -0.898888 -0.431915 -0.0738289
0.0127324 -0.402055 -0.199205 0.765913 -0.435436 -0.473047
-0.210399 -0.416752 -0.209898 -0.671598 -0.443488 -0.593527
-0.00797303 -0.44745 -0.204646 0.284518 0.0126952 -0.958587
0.0290983 -0.148939 -0.0560912 -0.356343 0.284444 -0.890007
-0.181603 -0.159125 -0.0553023 -0.1634 0.926267 0.339603
0.124042 -0.225897 -0.0666262 0.614172 0.160963 -0.772582
-0.235356 -0.00280137 -0.194215 -0.751365 0.616407 -0.235569
0.136156 -0.302367 -0.0477438 0.811929 -0.271518 -0.516769
-0.0265955 -0.455294 -0.205876 0.240537 -0.29738 -0.923963
0.0808181 0.143981 -0.26083 0.258161 -0.0158019 -0.965973
-0.2848 -0.346871 -0.0676228 -0.971039 -0.232977 0.0529709
0.167532 -0.464029 -0.0547125 0.971605 0.136925 0.192963
-0.140211 -0.495195 -0.0651055 -0.0121549 -0.999457 0.0306218
-0.155251 -0.495565 -0.052203 0.036399 -0.999319 0.00612616
0.133636 -0.0594512 -0.101137 0.374625 -0.833029 -0.407087
0.0369773 -0.498894 -0.0656276 -0.0103579 -0.99994 -0.0034641
-0.0141255 -0.483552 -0.203099 -0.0357993 -0.490325 -0.870804
0.258877 0.466691 -0.0675613 0.137962 0.694321 -0.706317
-0.0523468 -0.479467 -0.203369 0.288616 -0.56314 -0.774322
-0.271742 -0.354019 -0.154117 -0.907523 -0.334477 -0.254024
0.115012 0.312274 0.19144 0.27747 0.512743 0.812469
0.289042 0.245373 -0.0593604 0.853102 -0.346096 -0.390428
0.0315069 0.333482 -0.20167 0.0443732 0.665466 -0.745108
0.297752 0.264166 -0.0579226 0.867848 -0.32634 -0.374623
-0.0605814 0.295562 -0.210306 -0.367979 0.533614 -0.761477
-0.311626 0.208116 -0.045917 -0.937214 -0.346661 -0.038162
0.278471 0.175093 -0.0567411 0.977597 0.0398863 -0.206672
-0.169253 -0.497317 -0.107758 -0.0301353 -0.999412 0.0163825
-0.178809 0.0285854 0.027718 -0.869055 -0.480404 0.11813
-0.0689646 -0.0665676 -0.0561202 -0.51807 -0.834909 -0.185821
0.115566 -0.0896297 -0.0642796 0.436928 -0.66864 -0.601677
-0.229938 0.0866986 -0.203272 -0.569009 0.0181582 -0.822131
0.0930389 -0.1172 -0.0589475 0.306529 -0.250074 -0.918424
-0.215762 0.0770504 -0.208684 -0.214284 -0.228452 -0.94968
-0.298576 0.179541 -0.0253778 -0.886034 -0.344359 0.310421
-0.16599 -0.153557 -0.0647994 -0.0934374 0.942683 0.32034
-0.115416 0.0642316 -0.202031 -0.444838 -0.379438 -0.811262
-0.187185 -0.461875 -0.201318 -0.622256 -0.48308 -0.61598
0.125599 -0.245264 -0.0680702 0.645866 0.07658 -0.7596
0.114629 -0.349858 -0.0617276 0.877988 -0.0563881 -0.475351
-0.0845027 0.0566096 -0.21493 -0.400019 -0.443643 -0.801976
-0.121545 -0.496729 -0.0569096 -0.112567 -0.993638 0.00356556
-0.203678 0.008301 -0.213312 -0.0677662 0.574748 -0.81552
0.211008 0.108723 -0.182247 0.710634 -0.14978 -0.687434
0.147234 -0.496986 -0.0523491 0.296995 -0.946538 0.125939
0.0100744 0.401981 -0.078196 -0.149761 0.961571 -0.230117
-0.2535 0.354109 -0.0680366 0.0488351 0.949428 -0.310165
0.0336932 -0.00244891 -0.211194 -0.0559403 -0.630647 -0.774051
-0.313347 0.322369 -0.0716475 -0.802784 0.332834 -0.494732
-0.178028 -0.0141008 -0.204471 0.81585 -0.0757001 -0.573287
-0.139007 0.096315 -0.199763 -0.455189 -0.181542 -0.871691
-0.265472 -0.043122 -0.200501 -0.825783 0.563846 0.0126922
-0.314765 0.304001 -0.0775539 -0.84772 0.160228 -0.505666
