775
0.30022658361122012 -0.49828820955008268 0.039220278151333332
0.021250059828162193 0.42278353683650494 0.43258284358307719
0.10909954365342855 0.23278790852054954 -0.44964395137503743
-0.38454962847754359 0.43563562817871571 0.2427298566326499
-0.1098905703984201 0.29688879009336233 0.012036493048071861
-0.16639406606554985 0.043367572128772736 -0.31669656606391072
-0.41208589822053909 -0.017399977892637253 0.25424746051430702
-0.32533071283251047 0.021656036376953125 -0.020223499741405249
-0.18193726940080523 0.26980564743280411 -0.038613937329500914
-0.077257768251001835 -0.026359039358794689 0.20620777364820242
0.44478672882542014 -0.25622304901480675 0.16392575576901436
0.094693437684327364 -0.089843776077032089 0.44812462059780955
-0.48492894368246198 -0.29290002724155784 -0.33912906982004642
-0.0088115297257900238 0.30299094785004854 -0.099548355210572481
-0.027682753279805183 0.32270604372024536 0.33204088686034083
-0.03851785184815526 -0.15078725293278694 -0.0087972939945757389
-0.071351836435496807 0.3744325446896255 -0.41184184141457081
0.058525145519524813 0.32184910029172897 0.26962687307968736
0.40158571302890778 -0.37137945741415024 -0.13867488084360957
-0.39605024363845587 -0.16856632335111499 -0.26708873966708779
-0.22139846859499812 0.12866018153727055 -0.22137182811275125
0.44891970045864582 -0.12950304802507162 -0.26839710725471377
0.1193976690992713 -0.26765642780810595 -0.21390615589916706
-0.0081877876073122025 -0.10175692941993475 0.046371847856789827
-0.41139440378174186 0.25129295838996768 0.042318327818065882
0.42185545293614268 -0.438174516428262 -0.13010281743481755
0.34296047640964389 0.25302535993978381 0.13446447206661105
0.2819923716597259 -0.40822208998724818 0.093381508719176054
0.36161305662244558 0.15961331967264414 0.41184213245287538
-0.48091627890244126 -0.32371781393885612 0.37275582458823919
-0.070796772837638855 0.19844564888626337 -0.035769556183367968
-0.12897531129419804 0.32564799441024661 -0.41613761195912957
-0.11530888173729181 -0.42505057668313384 0.20383028406649828
0.04514776635915041 -0.18195473169907928 0.007005100604146719
0.33711252082139254 -0.0070376619696617126 0.16282877512276173
-0.40401620976626873 0.13673105603083968 -0.41874875547364354
0.11231332179158926 -0.024155900347977877 -0.11700737848877907
0.23605328286066651 0.49907459178939462 0.057463840581476688
-0.44358739210292697 0.13475649990141392 -0.36746815964579582
-0.1638088165782392 -0.16153224324807525 -0.14851553644984961
0.23900664132088423 -0.40631055133417249 -0.23288349295035005
0.4103642925620079 0.19870468555018306 0.1560419499874115
-0.40310242772102356 0.23553591780364513 -0.11095862835645676
-0.46466208761557937 -0.094426712486892939 0.43269664654508233
0.20696194097399712 -0.21437434200197458 0.30104878125712276
0.40813078125938773 0.44434330845251679 -0.26127397315576673
-0.021173128392547369 -0.14942802814766765 -0.49989604018628597
-0.093918813392519951 0.28635806310921907 -0.087964960839599371
-0.051947290077805519 0.16932637104764581 0.25268171448260546
-0.31607447285205126 0.43397099897265434 -0.35102400975301862
0.45200031204149127 -0.27150913327932358 -0.48248322261497378
0.34838763670995831 0.23948860261589289 0.31654337840154767
-0.49916371749714017 -0.13871777197346091 0.38577995169907808
-0.33142232848331332 0.33072950225323439 -0.21748994057998061
-0.17771409172564745 -0.14337232429534197 -0.38026118325069547
-0.054962286725640297 -0.37356488220393658 -0.35229256749153137
-0.18842738261446357 -0.18170565739274025 0.38162180921062827
0.19700993923470378 -0.19195859134197235 -0.49470300460234284
0.49921065336093307 -0.10863671731203794 0.013930762652307749
-0.43671730393543839 0.43033367022871971 0.36417592782527208
-0.013997857458889484 0.044420727994292974 0.49923607707023621
-0.47663961816579103 -0.28860363736748695 -0.27756290324032307
-0.036658422090113163 0.4204578441567719 -0.15184526890516281
-0.15445941872894764 -0.39029788225889206 -0.39605500549077988
-0.36063469713553786 0.055276470724493265 0.46472118142992258
0.42511836672201753 -0.12197763891890645 -0.48649516561999917
0.35105911968275905 -0.33289733761921525 0.48108757054433227
0.20348759647458792 0.39642942370846868 -0.44513293681666255
-0.14841370843350887 -0.13955706357955933 -0.30716120172291994
0.21052361326292157 -0.43713947990909219 -0.25277098687365651
0.37730839615687728 0.10874321218580008 0.14422730403020978
-0.18741890601813793 0.39862140640616417 0.15903655998408794
-0.19977890513837337 0.064237930346280336 0.29475531354546547
-0.22746332176029682 0.45017981110140681 -0.1531412024050951
-0.22876703413203359 0.42756227590143681 0.42836566595360637
-0.25405515031889081 0.12902163434773684 -0.33988983370363712
0.065099470783025026 -0.16394226299598813 -0.41268652817234397
-0.27776526845991611 -0.42671879148110747 0.18333862023428082
-0.26064833113923669 -0.15188846457749605 0.42209958145394921
-0.019957773853093386 0.029498076066374779 0.37000908516347408
-0.30313909286633134 0.16411869460716844 0.46127968607470393
-0.26216194545850158 0.355400032363832 0.44699974078685045
-0.052891266997903585 0.34957535425201058 -0.062725032214075327
0.47641399409621954 -0.445966727565974 0.29917001305148005
-0.34004000993445516 0.29027072573080659 0.0052313921041786671
-0.40457424009218812 0.45534754265099764 -0.20524614956229925
0.42006205674260855 0.29854969680309296 -0.041713602375239134
-0.19490128709003329 0.18119233567267656 -0.071619293186813593
0.11423607030883431 -0.30242667207494378 0.031600058544427156
-0.47417594539001584 -0.26926036458462477 -0.17199759604409337
0.20540098519995809 -0.44959505321457982 -0.44523990200832486
0.47169221378862858 0.29845802159979939 -0.27454959787428379
0.024719634559005499 -0.23516371008008718 0.47222056845203042
0.050592301413416862 -0.20418163295835257 0.25028717238456011
-0.25549539597705007 0.065031634178012609 -0.022135550156235695
-0.12877823738381267 0.10327955614775419 -0.038904733955860138
-0.20422746287658811 -0.14897189056500793 0.15978325810283422
-0.12068853992968798 -0.22726747579872608 -0.15888939378783107
-0.37365894019603729 0.1121755987405777 0.41873571742326021
0.48236768180504441 0.039220867212861776 -0.25059018190950155
0.44359514955431223 0.37441507587209344 -0.0070575252175331116
-0.2493084711022675 -0.36556682782247663 -0.39426816161721945
-0.29498066939413548 0.47316166060045362 0.014566219877451658
-0.116306581068784 -0.2078715618699789 -0.067532849032431841
0.35311976447701454 -0.48704143427312374 0.39748165896162391
-0.16907031880691648 0.28066057246178389 0.29685330344364047
-0.24503630073741078 -0.065534689463675022 -0.3630583924241364
-0.49754794035106897 -0.35544173838570714 -0.29136084020137787
-0.064239857252687216 -0.31031241500750184 -0.10827876068651676
-0.1367858056910336 0.23932665074244142 0.11408686684444547
-0.26691045193001628 0.30357804335653782 -0.046927579678595066
-0.23639408266171813 -0.4175306661054492 -0.35777686024084687
-0.29030886199325323 -0.40532671054825187 0.28600862435996532
0.22060133889317513 -0.24571612570434809 0.16643482586368918
-0.055006483104079962 0.13255656557157636 0.30055669788271189
-0.20631609577685595 0.1939469026401639 -0.38065165933221579
0.082453793846070766 0.31843243166804314 -0.014749187044799328
0.23838841821998358 0.41424352349713445 0.11162296868860722
-0.35561686661094427 0.017557033337652683 0.31902420381084085
-0.16285831108689308 0.24487630231305957 0.27273571025580168
-0.28324063494801521 0.27402276312932372 0.20851621218025684
0.18863644264638424 0.35056547494605184 0.37823791382834315
-0.19851270085200667 0.44591551413759589 -0.28188718436285853
-0.41750995861366391 0.18233675789088011 -0.41410858184099197
0.016314335633069277 0.1200856314972043 -0.073905277997255325
0.36510584224015474 0.13476432999596 0.13088195910677314
0.47361103026196361 -0.38729716325178742 0.38325294340029359
0.17649997724220157 0.44618804706260562 -0.38469987502321601
0.36309682903811336 0.37733468553051353 0.47429053904488683
0.43737838929519057 -0.36228543473407626 -0.012026506010442972
-0.28719779010862112 -0.16271128039807081 -0.49689950933679938
-0.43346272222697735 -0.22207950195297599 0.20609269151464105
0.076446826104074717 -0.021444915328174829 0.220732057467103
0.33354352647438645 0.36641693720594049 -0.23622751189395785
-0.38786365184932947 0.32280434295535088 -0.0085480595007538795
0.17715634824708104 0.040244440082460642 0.00081539154052734375
0.125127456150949 -0.41148986574262381 0.19409423740580678
-0.14390215836465359 -0.18758883280679584 -0.26754356734454632
-0.41937596630305052 0.14737717993557453 0.040260708890855312
-0.24449786031618714 -0.090101909358054399 0.090019034221768379
-0.1944137061946094 0.26607223507016897 0.18469243450090289
0.31958779273554683 -0.43303741421550512 0.13874524552375078
0.45130645344033837 -0.080115267541259527 -0.28100900212302804
0.45321168843656778 0.11041691154241562 0.074487018398940563
0.47428321000188589 0.36659770458936691 -0.31385048106312752
0.12433832790702581 -0.13263558410108089 -0.32281815819442272
-0.43129635415971279 0.3233676590025425 -0.40909191826358438
0.027131633367389441 0.21367184445261955 -0.29152345843613148
-0.017681092489510775 -0.44237929582595825 -0.050138297025114298
0.11104903602972627 -0.38169064372777939 0.18560111057013273
-0.38173046056181192 0.38916539726778865 -0.017198659013956785
0.098407587502151728 -0.016737468540668488 0.38717730529606342
0.37173489248380065 0.36429557111114264 -0.073230598121881485
0.14817524328827858 0.11139560211449862 -0.16317820176482201
-0.0033860309049487114 0.36167166847735643 -0.12326756119728088
0.10486334096640348 0.45563378697261214 -0.39510762505233288
0.24167537549510598 -0.19901049509644508 -0.41467073699459434
-0.080710680689662695 -0.22958000469952822 0.13980601914227009
-0.13142379652708769 0.22911092499271035 0.11823494359850883
0.29495533229783177 -0.42576681543141603 -0.17221329873427749
-0.26210651081055403 -0.23028575908392668 -0.072191253770142794
-0.35814226465299726 0.45302619179710746 0.28545766463503242
0.40425373241305351 -0.30395725090056658 0.40437744464725256
0.45721847144886851 -0.0018162154592573643 -0.45962448883801699
-0.45848765643313527 0.01175625529140234 0.43318689474835992
0.16226739669218659 -0.38975488767027855 -0.014743351377546787
-0.22884435998275876 -0.421082794200629 0.14852887066081166
0.15564603311941028 0.41172279790043831 0.19155760202556849
0.38505486445501447 0.3423655666410923 -0.11497921962291002
-0.15593924000859261 -0.038909881375730038 0.37980851856991649
0.30598841421306133 0.32181302551180124 0.059696372598409653
-0.11812319466844201 0.14784340793266892 0.3966329051181674
0.27994913561269641 -0.35448637371882796 -0.10552192432805896
0.066138618625700474 0.093126806896179914 -0.24973868113011122
0.48629510123282671 -0.20524996565654874 0.037981818895787001
-0.44322027219459414 -0.48516286397352815 -0.33155025821179152
-0.2537128278054297 -0.018273580353707075 0.49706887686625123
0.25348242372274399 0.41217869333922863 0.29391148453578353
0.24023281270638108 0.47531031025573611 -0.38906325027346611
0.26878778031095862 -0.14469290897250175 -0.3649496054276824
0.26072872010990977 0.1014100662432611 0.12803583173081279
-0.18757002893835306 0.29228187073022127 -0.24392917519435287
0.19604036118835211 -0.016263107303529978 -0.37282340647652745
-0.43972838157787919 -0.026877742260694504 -0.25625582365319133
-0.077863096259534359 0.45285821286961436 0.0043574012815952301
0.38277953211218119 -0.17523445608094335 0.10765510983765125
0.40094375098124146 0.18458734825253487 -0.28579285042360425
0.23686727415770292 0.20599869918078184 -0.19736951496452093
-0.061276628635823727 0.33158365963026881 0.44623620482161641
-0.44355665938928723 -0.26611225632950664 0.07061423733830452
0.098973957821726799 0.36115991603583097 0.19955882476642728
-0.16713609360158443 -0.4069107286632061 -0.070209359750151634
0.098956072703003883 0.39844629401341081 0.24000950763002038
-0.13715793238952756 0.3636480625718832 0.20426220400258899
0.4119054819457233 0.47341510653495789 -0.18756904685869813
0.0077749686315655708 0.45317818270996213 -0.013388033956289291
0.45690704416483641 0.27032579109072685 -0.39326648134738207
-0.04007711773738265 -0.0090415123850107193 -0.45783499348908663
0.3276170757599175 0.12149334326386452 -0.27659121295437217
0.24869200447574258 0.33672460541129112 -0.10667910752817988
0.26862958027049899 -0.0097439652308821678 0.32223382778465748
-0.21883484441787004 0.47588089387863874 -0.28673609904944897
-0.32714557182043791 0.43506232928484678 -0.039406508672982454
0.017962464597076178 0.0028695608489215374 0.24947912245988846
-0.09103195508942008 -0.24518089974299073 -0.29196734726428986
-0.082844804041087627 -0.39138790173456073 -0.12151697557419538
-0.31326002813875675 -0.19212591415271163 0.25171975372359157
-0.39147578226402402 0.4812765596434474 -0.09299152996391058
0.39920838410034776 -0.48461474990472198 -0.45201394008472562
-0.09141513891518116 -0.30933393444865942 0.18570199748501182
0.16840394446626306 -0.2042961185798049 0.095440513920038939
0.37662766128778458 -0.2391419680789113 -0.075298883020877838
0.028337143361568451 -0.2139479867182672 -0.00070738373324275017
-0.091446174774318933 0.42649452574551105 0.29654861800372601
-0.25534507725387812 -0.072710658423602581 -0.25527712889015675
0.12481430126354098 0.47746047517284751 0.1369630778208375
-0.23056935844942927 -0.14617459429427981 -0.42775447620078921
0.45790200075134635 0.18070342252030969 -0.39275805233046412
-0.31360613508149981 -0.040629271417856216 -0.40311248507350683
0.35240620188415051 -0.40326941711828113 0.22092493204399943
0.1147578414529562 0.3740199669264257 -0.38895522523671389
-0.11058759829029441 -0.048960139509290457 0.29632474295794964
-0.46289526997134089 -0.20978949218988419 -0.29422489041462541
0.0062766056507825851 0.37482641637325287 0.079605663660913706
0.087339572608470917 0.18372686998918653 0.075390815269201994
0.22592594008892775 -0.058705906383693218 0.24257418978959322
0.041703650262206793 -0.13282529870048165 0.16125099314376712
-0.38442389247938991 0.36841101665049791 -0.13152192486450076
0.46362706180661917 -0.17441875487565994 0.0035481364466249943
-0.18610642151907086 -0.38908981997519732 0.10905397869646549
-0.03535111527889967 0.2535979482345283 0.49105340521782637
0.1290138429030776 0.4183848281390965 0.48187803570181131
0.2641833433881402 0.34939629398286343 -0.16692724730819464
0.39722817856818438 0.29602876724675298 -0.33907318534329534
0.14473201287910342 0.31311151850968599 0.023014300037175417
-0.024752956815063953 -0.017133102286607027 -0.45307994680479169
-0.13881390262395144 0.16634315112605691 -0.18670682283118367
-0.19454629858955741 -0.49662737036123872 0.33641722472384572
-0.12051145033910871 0.21514649456366897 -0.033025332260876894
0.40329781547188759 -0.00031281355768442154 0.31799869006499648
0.3095088335685432 0.1444370006211102 0.40864686807617545
-0.066596672870218754 0.38418164197355509 -0.38229212537407875
-0.40934002818539739 -0.36293415864929557 0.42219227738678455
-0.16754904761910439 0.34464245941489935 -0.44398554321378469
-0.1497567854821682 0.43971207411959767 -0.24429526226595044
-0.38521402282640338 -0.39246463356539607 0.23145131394267082
-0.133539411239326 0.34433686034753919 0.34648790024220943
0.035923758987337351 -0.43158977618440986 -0.14601566921919584
-0.24816227937117219 0.29857609141618013 -0.41235823277384043
0.3358928975649178 0.32496994407847524 0.26124096708372235
-0.12372166896238923 -0.037287544924765825 -0.081539539154618979
-0.4797538653947413 -0.23640190390869975 -0.36512372642755508
0.45646086661145091 -0.10325120715424418 0.31338359462097287
0.35499772522598505 0.40227806195616722 -0.024556921795010567
-0.17453007539734244 -0.35769652901217341 -0.46363877318799496
0.4476292715407908 0.37709388602524996 -0.49208561889827251
0.27153986506164074 0.21160477912053466 0.16690373420715332
-0.34656485868617892 -0.1123719927854836 0.39625301957130432
0.37557466281577945 0.36382797919213772 -0.29893381614238024
0.12089212285354733 0.45671361079439521 -0.0048180990852415562
-0.10565795330330729 -0.42027179943397641 0.10426536807790399
-0.42887990921735764 0.3823767164722085 0.17708769673481584
-0.34108141995966434 -0.0022754836827516556 0.17231319844722748
0.13338909996673465 0.042034715414047241 0.10942358942702413
-0.14150444837287068 0.4514912748709321 -0.20202797185629606
-0.093038029503077269 -0.2762160636484623 0.26721852831542492
-0.17656108364462852 -0.47290217410773039 0.43514047237113118
0.23784806160256267 0.1860389644280076 -0.48578789085149765
0.44490185705944896 -0.48968957830220461 0.082864486612379551
0.48718142742291093 0.11573660466820002 -0.33898050291463733
-0.34227118687704206 -0.050114647950977087 -0.2926856973208487
0.25046738563105464 -0.1425620554946363 0.27616564929485321
-0.22313529346138239 -0.27389163197949529 0.26490337215363979
-0.37472816556692123 -0.46008403971791267 -0.47514018882066011
0.26876085251569748 -0.36717656487599015 0.42038119630888104
-0.44320742506533861 -0.17414717562496662 -0.36786896549165249
0.21361194271594286 -0.38001187751069665 0.080310003831982613
-0.22104164026677608 0.22781123500317335 0.42239365959540009
-0.43665318284183741 0.38276168471202254 0.45061116758733988
0.1849292628467083 -0.40221687266603112 -0.042001427616924047
-0.067242239601910114 0.44915064983069897 -0.14882178837433457
-0.075934790074825287 0.0027046375907957554 -0.29195185285061598
0.26385655160993338 0.29700512439012527 -0.082820502575486898
-0.14494156511500478 -0.25318421702831984 -0.18471290590241551
-0.16244299709796906 -0.29401738010346889 -0.36483089346438646
0.44415135495364666 0.036199263297021389 0.40251761814579368
-0.23934747092425823 -0.14458571607246995 0.33100251387804747
-0.2181159621104598 0.1849597031250596 -0.24859964940696955
-0.10217060055583715 0.15069914469495416 0.31848536292091012
-0.48106280947104096 -0.32111386163160205 -0.28895401302725077
0.45657532615587115 -0.49090378452092409 0.41811307379975915
0.41282065771520138 0.34338166937232018 0.48345451941713691
0.41484414273872972 0.060019211377948523 -0.39290676219388843
0.28411443764343858 0.48907536780461669 0.4876012378372252
-0.37200985988602042 -0.27581770671531558 0.37762246560305357
0.3280524667352438 0.082080460619181395 0.35713126882910728
-0.15720698516815901 -0.16847607539966702 0.48209575191140175
0.23967947345227003 -0.086249114479869604 0.31247573345899582
-0.25539759499952197 -0.44070560298860073 0.40933147212490439
-0.45792803727090359 -0.1870430544950068 0.053817024920135736
-0.022842588368803263 0.0004199533723294735 -0.30088920285925269
0.17240150226280093 -0.41447484446689487 -0.15148481819778681
-0.26442702487111092 0.13110749749466777 0.47496340703219175
-0.25267901597544551 -0.39501758618280292 -0.45658295741304755
-0.020419795531779528 -0.072401901707053185 0.42319999961182475
0.0087518468499183655 0.2487209141254425 -0.082404094748198986
-0.26161315897479653 -0.022443394642323256 -0.22328990511596203
0.18086483655497432 0.4212747416459024 0.22812793450430036
-0.28204858908429742 0.33970993757247925 -0.2580705345608294
-0.3347255103290081 -0.42598177213221788 0.42401718301698565
0.34230546187609434 0.32071724673733115 -0.14390288479626179
-0.18923397129401565 -0.48472382174804807 0.18493475392460823
-0.20065373741090298 -0.16257063113152981 0.027998666279017925
-0.13895889976993203 -0.23152165208011866 0.20941080106422305
0.45978814689442515 -0.49640598148107529 0.46575119206681848
0.20049476809799671 -0.041823357343673706 -0.15813608793541789
-0.075870557688176632 -0.15955907804891467 0.41490025166422129
-0.39204850513488054 -0.062832399271428585 0.0032262420281767845
0.49360397923737764 -0.39626097492873669 0.049029476009309292
0.47220193920657039 0.2754064965993166 0.37464138772338629
0.42574914498254657 -0.030301814898848534 -0.21350195957347751
0.41503308713436127 -0.34809351619333029 0.41683510597795248
-0.022050775587558746 0.072924061678349972 0.30206167651340365
0.24224453046917915 -0.098528092261403799 -0.49467776482924819
0.13815320888534188 -0.048806015402078629 -0.0066655841656029224
0.20775570347905159 0.47658773418515921 -0.014804892707616091
-0.030912566930055618 -0.3884850200265646 -0.4141493490897119
-0.28137380629777908 0.20653811655938625 0.25099257240071893
-0.22109403926879168 -0.0076756994239985943 -0.37912158248946071
0.25728149246424437 0.17864400427788496 0.38958018133416772
0.052067222539335489 -0.26137335505336523 0.020839152857661247
-0.46199531434103847 -0.036229640245437622 -0.10350561002269387
-0.49961733911186457 -0.42726931814104319 -0.27934649400413036
-0.41854114504531026 -0.28892250871285796 0.48425167705863714
0.36904747365042567 0.27883003186434507 -0.27718088123947382
-0.42799391178414226 0.49418279761448503 0.047356947790831327
-0.034842389170080423 0.40646638907492161 -0.056034132838249207
-0.027435350231826305 -0.48565806914120913 -0.38037589285522699
-0.18735198816284537 0.35177216026932001 -0.46085087582468987
0.27553081745281816 0.19816174730658531 -0.08581845136359334
0.4880461236461997 0.28102001314982772 -0.49360821675509214
0.038995746988803148 0.29451840650290251 0.0093503003008663654
-0.23760267393663526 0.25556250242516398 -0.29825541935861111
0.094671260565519333 -0.46566522121429443 -0.046560612041503191
0.37124874535948038 -0.26990784052759409 0.17275256291031837
0.041379592381417751 -0.23724802536889911 -0.23192715784534812
0.068494037259370089 -0.30444091418758035 0.33387789549306035
-0.35570669639855623 -0.3166590528562665 -0.032799667678773403
0.37759242625907063 0.32937628543004394 -0.15264060394838452
0.33935910230502486 0.24679270433261991 0.47399425180628896
-0.45366272563114762 0.17901150835677981 -0.2909887102432549
0.43514676857739687 -0.49551639845594764 -0.31971587194129825
0.34875678177922964 0.45563924126327038 -0.45992519287392497
-0.46556969126686454 0.031564008444547653 0.14391519036144018
-0.023910635150969028 -0.39098066091537476 0.46109725907444954
-0.25817925482988358 -0.0027450672350823879 0.4616600489243865
-0.28872170392423868 -0.13379918411374092 0.15931370574980974
-0.15313305426388979 0.47168957721441984 -0.20963902771472931
0.48926389636471868 0.43895068019628525 -0.3416900890879333
0.10458176210522652 0.27922475477680564 0.14093665219843388
0.12558029219508171 -0.45508009055629373 0.25947193475440145
0.46052500419318676 -0.38855055114254355 -0.062380425166338682
-0.44879019958898425 0.44571986049413681 0.26917860610410571
0.03313349187374115 0.22057400038465858 0.053175426088273525
-0.15330414660274982 0.13782818894833326 0.090275243856012821
-0.072872566990554333 0.310182292945683 -0.23291801894083619
0.3434892101213336 -0.26359691983088851 0.23662259289994836
-0.20400091772899032 -0.11070985067635775 0.3981010103598237
-0.32397638587281108 -0.45819445559754968 -0.096086635254323483
-0.23019502637907863 -0.18594360072165728 -0.16228407621383667
-0.1604999708943069 -0.0087908045388758183 0.21834567608311772
0.037309011910110712 0.087266303133219481 0.45451166527345777
0.3095466080121696 -0.0022643804550170898 -0.13583615981042385
0.05190890422090888 -0.25437724497169256 0.46469967439770699
-0.076875037048012018 -0.12517249491065741 0.31023249356076121
0.14941144548356533 -0.35432797716930509 -0.011862954124808311
-0.28050887817516923 0.41935952287167311 0.25849510729312897
0.37848550733178854 -0.44525853917002678 -0.047548704780638218
0.49342377902939916 -0.28997182659804821 0.42345671635121107
0.36541616637259722 0.1192813110537827 -0.46845854911953211
0.1553199072368443 -0.18611821625381708 0.27471951162442565
-0.06924426881596446 0.33931421767920256 -0.43385645793750882
0.14502634247764945 -0.17114832578226924 -0.21149443881586194
-0.074579817708581686 -0.18288459256291389 -0.092500164173543453
-0.19996885349974036 0.032970056403428316 -0.099628888070583344
0.16429705778136849 0.39961219439283013 -0.27869682386517525
0.027407074347138405 -0.091075915843248367 -0.41534162079915404
0.15300075709819794 0.14582437556236982 0.081526372116059065
-0.12536463048309088 -0.14480072213336825 -0.38528821337968111
-0.44542665313929319 0.030586905311793089 -0.3083613570779562
0.22697846358641982 0.21088310377672315 0.3879189332947135
0.078232802450656891 0.3596058776602149 -0.056768562644720078
-0.47505390830338001 -0.47533269971609116 0.34609890123829246
-0.31642728112637997 -0.47600673884153366 -0.26742029609158635
0.14115871489048004 0.087478069122880697 -0.13784473761916161
0.31800004420801997 -0.48506886838003993 0.067618017084896564
-0.45013962592929602 0.44627269543707371 -0.41576982056722045
0.32253866689279675 -0.41508464002981782 -0.07172050978988409
0.027348042465746403 -0.20012619392946362 0.42728688521310687
0.21610598545521498 -0.34941915469244123 -0.35662712156772614
-0.48958812886849046 0.21619187900796533 -0.21275700954720378
0.38143586786463857 -0.14928165264427662 0.063531366642564535
0.21306616999208927 0.40067576244473457 -0.013309454545378685
-0.068590784445405006 -0.44397294754162431 0.1821068124845624
-0.012784737162292004 -0.39400788582861423 0.07438760856166482
0.42857490573078394 -0.28321961080655456 0.15407282067462802
0.39421173138543963 -0.19078976614400744 -0.18263818323612213
-0.096959100104868412 0.47844423819333315 0.056172109209001064
0.39552633324638009 0.43951476737856865 0.20949367014691234
0.30579964723438025 -0.44831096334382892 -0.071655937004834414
0.37122914660722017 -0.2199784885160625 0.47643474442884326
0.31321813631802797 0.446884008590132 0.42832950921729207
0.40893046138808131 -0.46852039964869618 -0.33094239979982376
0.40726262051612139 -0.24910742929205298 0.014573021326214075
0.36951165599748492 0.052145225927233696 -0.21603567153215408
0.19012806052342057 -0.32043404038995504 0.41872146585956216
0.44343292247503996 0.38339130487293005 0.058722773101180792
-0.20610223850235343 0.1049308474175632 0.057078701443970203
0.44910714728757739 -0.14938315702602267 0.25383117096498609
0.26008198596537113 -0.42313773091882467 -0.052721001673489809
-0.0058787134476006031 0.15284415287896991 -0.25269479770213366
0.18144162092357874 0.11605830816552043 -0.34269569534808397
0.16507774405181408 0.11338401772081852 -0.41647699475288391
-0.33174073556438088 -0.19970091665163636 0.2461660080589354
-0.25085762236267328 0.38316490780562162 -0.42068787524476647
0.2768238908611238 0.20191573025658727 0.33506783610209823
-0.3740786025300622 0.34119413746520877 0.22254824079573154
0.073884729295969009 -0.21944706980139017 -0.43015701230615377
0.1048977798782289 0.067328314296901226 0.20296056941151619
0.11489119147881866 -0.0096164923161268234 -0.45501595828682184
-0.0076044765301048756 0.054381676949560642 -0.4666189169511199
0.20599443977698684 -0.0093506891280412674 -0.23811810882762074
-0.081598171032965183 0.14841887215152383 -0.4942455654963851
0.24306482402607799 -0.0037906300276517868 -0.1925248452462256
-0.36113440571352839 0.21241678902879357 0.47504034079611301
-0.20820033689960837 0.44191232789307833 -0.45076914923265576
0.42582845874130726 0.46316750068217516 0.025323264766484499
0.4533588970080018 0.034674016293138266 -0.14686803380027413
0.086787097156047821 0.067604667507112026 0.086453741881996393
0.37719156313687563 0.009082769975066185 0.31703176256269217
0.27043722663074732 0.20920747518539429 -0.062059560790657997
-0.48372976714745164 0.47454070579260588 0.19766893843188882
0.13484396832063794 0.22582744201645255 -0.24467947334051132
0.21864660270512104 0.43870654236525297 -0.37946920190006495
0.48022844921797514 0.16399090085178614 0.30627437494695187
0.13584103994071484 0.36280600167810917 0.11097028059884906
-0.38078790483996272 -0.14854547847062349 0.43079632101580501
0.39257811242714524 -0.26544019347056746 0.37466197414323688
0.14962158631533384 0.36648037331178784 -0.026289814617484808
0.33550981804728508 0.11518014641478658 -0.39924407051876187
0.0038692401722073555 0.14164621755480766 -0.40060011669993401
0.031290580052882433 0.21056068176403642 -0.054527684580534697
0.065844018012285233 -0.33614938100799918 -0.34588739648461342
0.27540066512301564 -0.29649646254256368 -0.13340999791398644
-0.36481555225327611 0.30274694552645087 0.18937033135443926
0.12776283826678991 -0.057766025420278311 -0.2209857814013958
-0.19290188979357481 0.15594714088365436 0.0091603947803378105
0.27802637778222561 0.47605201136320829 -0.0049326452426612377
0.40441709430888295 0.16819113120436668 0.2174499467946589
0.36252223746851087 -0.1088658208027482 -0.36964836530387402
0.075357088353484869 -0.019026454538106918 -0.49678043695166707
-0.35505819180980325 0.10737471375614405 0.24817921034991741
-0.29966010851785541 0.41758497478440404 0.23377068340778351
-0.41274306271225214 0.30335699440911412 0.39498201152309775
-0.46688620839267969 0.27701157378032804 -0.45213608769699931
-0.16499885264784098 -0.073704193346202374 -0.33541583456099033
-0.34705213224515319 -0.31098675122484565 -0.33290385222062469
-0.12169458158314228 0.44591990392655134 0.35371081391349435
-0.066265114117413759 0.33508824137970805 0.41119855409488082
0.2582415034994483 -0.45377835584804416 0.35267915576696396
-0.43402181565761566 0.054160113446414471 0.40790412947535515
-0.14010595763102174 -0.38221798045560718 -0.21434975322335958
0.28429568884894252 -0.40046178083866835 -0.11542868940159678
0.44010558724403381 0.40002998942509294 -0.45576613256707788
0.20547020900994539 -0.33409059373661876 0.19635179126635194
0.43747276207432151 0.10189146129414439 0.20774381374940276
0.49480142910033464 0.048686955589801073 0.13142018439248204
-0.38982612220570445 0.33855382539331913 0.42155451327562332
-0.10455693397670984 0.44246070878580213 0.083585463464260101
0.30560873541980982 0.17905910266563296 0.39761387696489692
-0.042671400588005781 -0.25890361284837127 0.1471287808381021
-0.041378404013812542 -0.19013905245810747 -0.11231337301433086
-0.39156448049470782 0.45679565891623497 -0.19244633335620165
-0.033104571979492903 0.043699598405510187 0.143535774666816
-0.30649087484925985 -0.31315931305289268 0.038947235327214003
0.33244346547871828 -0.48410165403038263 -0.2395656299777329
-0.086507935076951981 0.026062121614813805 -0.060255396645516157
0.3668536227196455 -0.09253167686983943 -0.25572043098509312
-0.28853055322542787 0.30595972761511803 -0.10773949697613716
0.071669952943921089 -0.38978101266548038 -0.48627635184675455
-0.46058392804116011 0.096994922030717134 0.11026192549616098
0.19784838566556573 0.38334521092474461 0.4151245029643178
-0.45175968576222658 0.28319302434101701 0.3716002544388175
-0.067722295876592398 0.018914513755589724 0.32520085200667381
-0.24415268935263157 0.39011856215074658 0.17041422752663493
0.020005306228995323 0.46543759247288108 0.31661201221868396
0.33706023870036006 -0.30547774396836758 -0.24347225157544017
-0.36440541828051209 -0.053107830695807934 0.21244613546878099
-0.10506626777350903 0.37081258231773973 0.3914384413510561
0.39073801273480058 -0.21376699395477772 0.14100599940866232
0.24907015729695559 -0.44848368410021067 -0.27453559217974544
-0.088588638231158257 -0.019515460822731256 -0.16832739021629095
0.30490758083760738 -0.3326282175257802 0.48389420565217733
0.47292990889400244 -0.0073562683537602425 0.40879435325041413
-0.39432197436690331 -0.072075470816344023 -0.43680896144360304
-0.039191927295178175 -0.13083208724856377 -0.31346153607591987
0.31347030401229858 0.24734417209401727 -0.46468057716265321
0.1255540712736547 -0.14376356918364763 -0.45591134112328291
0.053273819386959076 0.25272151548415422 0.31542719388380647
-0.088671513833105564 0.3148659598082304 0.1493506864644587
0.4001408638432622 -0.079562882427126169 -0.24353436846286058
0.27444912120699883 0.36469695530831814 -0.2769699371419847
-0.18021314824000001 0.18756649130955338 -0.22113426402211189
0.037411682307720184 0.21478133834898472 -0.33450551191344857
-0.45389544125646353 0.47027951385825872 -0.026750389486551285
-0.34564657416194677 0.44588104821741581 -0.40776639338582754
-0.46153751760721207 0.37647088337689638 -0.32362432079389691
-0.40188974747434258 0.38765556644648314 -0.38823538413271308
-0.49203420663252473 -0.42617731122300029 0.048753817100077868
-0.47023195307701826 -0.010339520405977964 -0.48677866999059916
0.40573324915021658 -0.25718369474634528 0.30077551491558552
0.036660864017903805 0.0054083876311779022 -0.43783875368535519
-0.29461491899564862 0.27603804646059871 0.23534695617854595
0.19977819547057152 0.46498010167852044 -0.35859858151525259
0.43658425705507398 -0.49544947920367122 -0.26052901428192854
-0.21363008208572865 -0.30927135236561298 -0.28322310140356421
0.22596936160698533 0.013082893565297127 -0.11868382198736072
0.41299644112586975 0.11075852252542973 0.14151691226288676
0.36365339392796159 -0.3673926810733974 0.23607221199199557
-0.062144819181412458 -0.4882691795937717 0.24114961270242929
-0.36503787292167544 0.367890365421772 -0.088781753554940224
-0.059943666681647301 -0.48796743527054787 0.28205831302329898
-0.21137234661728144 -0.35008246637880802 -0.42954319436103106
-0.19336110446602106 0.18948143534362316 0.49977433122694492
0.38009738968685269 -0.018797385971993208 0.19825750356540084
-0.3662847587838769 0.38147752964869142 0.25473017431795597
-0.29866340756416321 -0.12225188920274377 -0.39089536853134632
-0.13051072368398309 -0.43786075105890632 0.13760677305981517
0.44816574407741427 0.39579131966456771 -0.093952314462512732
0.24612794816493988 -0.25257945200428367 -0.093122299294918776
-0.47978319087997079 0.010844432283192873 -0.49675219040364027
0.3442007708363235 0.34661869239062071 -0.35900504048913717
-0.049006710760295391 0.38375389529392123 0.32365165976807475
-0.050889386795461178 0.12086702417582273 0.33938585314899683
-0.36368364514783025 0.13065338088199496 -0.19931706739589572
-0.28849062090739608 0.17792943771928549 0.10254071373492479
-0.31686851847916842 0.28247031848877668 -0.19876797078177333
0.030485987197607756 -0.13408051058650017 -0.44609421025961637
-0.25761074665933847 0.44384119007736444 -0.057917157188057899
-0.08024709764868021 -0.24260755116119981 0.11530975345522165
-0.36305028386414051 -0.43543784692883492 0.43527534138411283
0.21651803888380527 0.14219803875312209 0.18466191412881017
0.351436838041991 -0.4821637375280261 -0.014700707513839006
-0.31772235501557589 0.2203861502930522 -0.042667787056416273
-0.48476093821227551 -0.20410518813878298 -0.10466259345412254
-0.1699847811833024 -0.19173888629302382 0.33424276392906904
0.129698536824435 0.042043187189847231 -0.26068310206755996
-0.1565919416025281 -0.14438804285600781 -0.091401595622301102
-0.47402322012931108 0.032564282417297363 -0.35636394750326872
-0.14671071246266365 0.37723865127190948 -0.22824933752417564
0.4338690428994596 -0.002114554401487112 -0.11207040119916201
0.029354433063417673 0.43143789889290929 -0.18473484460264444
0.05454346165060997 -0.20345676923170686 0.11150455148890615
0.47655876260250807 -0.022534278687089682 0.22692385874688625
-0.38061437336727977 0.0075110923498868942 -0.21653510723263025
-0.14656865131109953 0.26790899410843849 0.0094289644621312618
0.10827953042462468 0.0082363537512719631 -0.32849694322794676
-0.088284578174352646 -0.30874229408800602 0.31617109943181276
-0.18397232284769416 -0.15621669124811888 -0.1685450030490756
-0.44253355590626597 0.039605006109923124 -0.22814871510490775
-0.063458090648055077 -0.41500602615997195 0.41153069911524653
-0.090863277204334736 0.19538691313937306 0.21606747154146433
0.41071452153846622 0.026396532077342272 0.25339935999363661
-0.25025946646928787 0.10565670486539602 -0.4619286460801959
-0.28702348843216896 0.014413897413760424 0.38012659410014749
0.28630931535735726 0.30046937381848693 -0.38367768842726946
0.069066186435520649 -0.13669592281803489 0.28890616539865732
-0.43996354658156633 -0.013247549533843994 -0.42157916584983468
0.18903436325490475 -0.25884265685454011 -0.34529199963435531
-0.1493131909519434 0.44838843634352088 -0.34350973600521684
-0.17733088508248329 -0.40481477556750178 -0.090356799773871899
0.14958059415221214 -0.2103957561776042 0.49694508360698819
0.39918022928759456 0.061523081734776497 -0.016942764166742563
-0.15092855412513018 0.06398274889215827 -0.49292449979111552
0.27560399938374758 -0.30513616884127259 -0.0083527360111474991
-0.22759182332083583 -0.19130196142941713 0.39489578083157539
-0.27400089567527175 -0.21895234612748027 -0.018900169525295496
-0.29010788537561893 -0.37170061096549034 0.3838720116764307
-0.0089401174336671829 0.20423705503344536 -0.19751226343214512
0.028916268143802881 -0.098296467680484056 0.21742183901369572
0.37159944884479046 -0.22881358861923218 -0.27304619550704956
-0.44456692924723029 -0.37357773585245013 0.08146007964387536
0.42806660290807486 -0.041422994341701269 0.075280567165464163
0.23540763230994344 0.27401550067588687 -0.33214221335947514
-0.21868086326867342 -0.13968696352094412 -0.21571202995255589
0.175106565002352 -0.024229414295405149 0.43418578105047345
-0.34730945248156786 -0.038399609737098217 -0.12079465528950095
-0.032030939124524593 0.051768513862043619 0.13747390080243349
0.12461229506880045 0.044861879199743271 0.10099484445527196
-0.22060881927609444 -0.06476374389603734 0.42650706507265568
0.36249562771990895 0.20340682752430439 -0.23053315980359912
0.44714016793295741 0.050411168951541185 -0.40103180147707462
0.15085915243253112 -0.37418921617791057 0.1677251635119319
-0.4574161609634757 -0.22211855417117476 0.30449182633310556
0.37458642618730664 0.13558573927730322 0.16891502030193806
-0.0070419362746179104 -0.16647865576669574 0.07297967467457056
-0.25370181305333972 -0.38438017386943102 0.26248520100489259
0.32091994816437364 0.048312569968402386 -0.078929195180535316
-0.35508731752634048 0.47117996029555798 -0.24397939909249544
-0.1110698664560914 -0.073158030863851309 -0.44350721128284931
0.26080687250941992 0.15733638871461153 0.45167915150523186
-0.13483911519870162 0.060323343146592379 0.47332640131935477
-0.4596122675575316 0.20884168008342385 -0.48630171781405807
-0.40151328686624765 -0.37475596461445093 -0.35743207111954689
0.1352057196199894 0.021357056684792042 0.33597582066431642
-0.31793629610911012 0.38287167390808463 -0.33604209357872605
-0.42170275980606675 -0.10313157178461552 -0.46844655275344849
-0.06193200359120965 0.47208150755614042 0.1391292423941195
-0.17664334364235401 -0.24881525477394462 -0.18564418284222484
-0.4797575268894434 -0.45328810717910528 0.40379949938505888
0.20386266941204667 0.36968378443270922 0.19835190242156386
-0.053849556483328342 0.26466810703277588 -0.028297365177422762
0.29767263866961002 0.20669309748336673 -0.44330854853615165
0.33018678333610296 -0.36429070495069027 0.33995003346353769
-0.4070345601066947 0.081924708094447851 -0.08339727995917201
0.32553750462830067 0.45673010498285294 0.42653069226071239
0.17772731510922313 0.075542286038398743 -0.48885934660211205
-0.22262147115543485 0.03355723898857832 0.47614835621789098
-0.43890329403802752 -0.081814913544803858 0.30870298249647021
0.36482300003990531 0.4958988856524229 0.23628063779324293
0.40230314712971449 0.098488776013255119 -0.11371251847594976
-0.24232410918921232 -0.47228783322498202 -0.21068494906648993
-0.27838676376268268 0.013588694389909506 0.25259680906310678
-0.33884667884558439 -0.094296309631317854 0.24486393434926867
0.34517013235017657 -0.0252208411693573 0.31999933207407594
0.39592130435630679 -0.45085204439237714 0.23887634510174394
0.27826599916443229 -0.16495555033907294 0.21970099164173007
0.12671198043972254 -0.45191485714167356 0.0093346787616610527
-0.12925317790359259 0.10637261718511581 -0.27006627852097154
0.20696095610037446 0.2921720314770937 -0.2768411859869957
-0.35748611902818084 0.057968046516180038 -0.17882751254364848
0.13154735881835222 0.28202552860602736 0.038436248898506165
0.3510371707379818 -0.084469169843941927 -0.091070302296429873
0.20219476846978068 0.22808073461055756 0.028739718720316887
0.24100448284298182 -0.24949299078434706 0.27954041631892323
0.040657003410160542 0.26120882667601109 -0.25349538726732135
0.48021249240264297 -0.4251441266387701 -0.2715505063533783
-0.041959241032600403 0.43677460821345448 0.42247771192342043
-0.09966370603069663 0.02832624688744545 -0.3927262807264924
0.27819985803216696 0.030283816624432802 0.16987008787691593
0.4851439855992794 -0.24797114869579673 -0.28704090975224972
-0.016696104779839516 -0.25960539374500513 0.38972746254876256
0.46422570431604981 -0.2413813378661871 -0.48514324519783258
-0.30972329992800951 -0.17621629452332854 0.08675997843965888
0.2431894950568676 -0.24243769282475114 0.2876909589394927
0.072769912425428629 -0.23675820278003812 -0.12697011791169643
0.38377743680030107 -0.47760449163615704 -0.29187455913051963
-0.21678092377260327 -0.47059274930506945 0.17150017386302352
-0.11642505694180727 0.14146079961210489 -0.35646754875779152
-0.10884314822033048 0.3652449925430119 -0.18018766399472952
-0.082137939054518938 -0.051145589910447598 0.034577637910842896
0.14945353986695409 0.43041580682620406 -0.045572614762932062
-0.28636222193017602 -0.10320583544671535 -0.46038183476775885
0.45598411234095693 -0.073543046601116657 -0.37884917063638568
-0.047321632504463196 -0.36633552052080631 0.4645898905582726
0.42983124312013388 0.41944972891360521 -0.36038710130378604
0.12074339995160699 -0.43779025180265307 -0.46776176244020462
-0.1245316076092422 0.39377945708110929 0.19163398770615458
-0.11566436151042581 0.17266815202310681 -0.24370006984099746
-0.26872167643159628 0.0040925918146967888 -0.27310350490733981
0.34644738817587495 0.47310108179226518 -0.19455412309616804
0.02811086643487215 -0.043495372403413057 -0.31260300520807505
0.26452021487057209 -0.22852648189291358 -0.24042288586497307
-0.13744972459971905 0.27586440602317452 0.10084319673478603
0.39993305830284953 0.47864391142502427 -0.3663292727433145
0.45845808647572994 0.48435358423739672 -0.27059215167537332
0.16767643066123128 0.4267693585716188 0.11910271737724543
-0.23104102490469813 -0.44126812741160393 -0.020551305264234543
-0.39174305088818073 -0.36028600484132767 0.35100879892706871
-0.2927667647600174 0.15240773558616638 0.14540863176807761
0.3511728779412806 -0.32661689957603812 -0.10990466037765145
0.44875454530119896 -0.29271360393613577 0.28648939449340105
0.42371088406071067 -0.24430256057530642 -0.22117113973945379
0.42665231553837657 -0.12454802868887782 -0.32076368806883693
0.022055264562368393 0.31793984863907099 -0.4195048357360065
-0.41166891204193234 -0.19806445995345712 -0.46552714146673679
-0.29724021721631289 0.27565141767263412 0.28794836951419711
-0.22935557411983609 -0.41455333027988672 0.46264115627855062
0.34149581380188465 -0.23933623917400837 -0.024809024296700954
0.43890580162405968 0.14913246687501669 -0.1742981499992311
0.11251602321863174 -0.045196367427706718 -0.11919667478650808
-0.25335571868345141 -0.012344108428806067 -0.21636846335604787
0.059100338257849216 0.37596172234043479 -0.077262730803340673
-0.28850951045751572 0.19605723675340414 -0.2730970773845911
0.032415406312793493 -0.020999225322157145 -0.11844513332471251
0.006751389242708683 0.12279644701629877 0.40762196341529489
-0.086133157834410667 -0.22611123928800225 0.011442058719694614
-0.2630968252196908 -0.08463485911488533 0.41244649887084961
0.020393230020999908 -0.36018782434985042 0.4486051662825048
0.21186159364879131 -0.084274258464574814 0.36344199813902378
-0.37128217658028007 -0.49826469738036394 -0.28493937803432345
-0.070299102459102869 -0.092392839025706053 -0.048967704176902771
-0.12897681072354317 -0.32167720794677734 0.27707512630149722
-0.12224410520866513 0.39881953084841371 0.25514748832210898
-0.40505854273214936 0.13049350259825587 0.43083301885053515
-0.074927011970430613 0.45455767540261149 0.013839748688042164
-0.42874663043767214 0.28734229179099202 -0.43715925933793187
-0.0036636954173445702 -0.37465705163776875 0.22150775231420994
0.24723855219781399 -0.42307624407112598 -0.30664467206224799
0.2011125567369163 -0.11931873625144362 -0.32406954746693373
0.16790401516482234 0.36532225087285042 -0.24897725461050868
-0.30813814327120781 -0.47829645685851574 0.16634313808754086
-0.10307830246165395 -0.33020148891955614 0.35275272000581026
-0.25994707038626075 0.23393546370789409 -0.33110353676602244
0.10720763029530644 -0.16940596513450146 0.40853942092508078
0.42916758032515645 0.3262825827114284 -0.28774783667176962
-0.43043561559170485 0.21946887578815222 0.32767831580713391
0.36496056150645018 -0.33048384403809905 0.20750736072659492
-0.055525127798318863 -0.25412626937031746 0.032504184171557426
-0.46917199762538075 -0.49276536796241999 -0.015233503188937902
-0.49465980660170317 0.39337562350556254 -0.34747823094949126
-0.033663066569715738 0.24635844910517335 -0.12307189451530576
0.20243613421916962 0.26896024541929364 -0.054207989480346441
-0.090187496971338987 0.49476447328925133 0.17005068203434348
0.16858938382938504 -0.15391967305913568 0.45047732442617416
0.41879437305033207 -0.34156489325687289 -0.46515829209238291
0.37779033370316029 0.3691862728446722 0.021800774149596691
0.39450529217720032 0.47934883134439588 0.27274205349385738
0.29284156439825892 0.46976984106004238 0.49326916923746467
-0.29649505484849215 -0.19975177990272641 0.49377340404316783
-0.24828429333865643 0.14785201987251639 -0.3720406168140471
-0.040464183315634727 0.36245719343423843 0.45660005882382393
-0.0044774734415113926 -0.40169155178591609 -0.48528608726337552
-0.42107714014127851 -0.11563542950898409 -0.37329078512266278
0.39316397393122315 0.026336221490055323 0.35942317079752684
-0.29143119510263205 -0.43129468662664294 0.21387348091229796
-0.15833008848130703 0.15247210208326578 0.08614244731143117
0.17116955295205116 0.011252509895712137 0.44173923460766673
-0.0078543787822127342 0.053970839362591505 0.25006243539974093
-0.051705261692404747 0.3780858451500535 -0.3263558098115027
-0.15115978941321373 0.30306854518130422 -0.15889209322631359
-0.46335800038650632 -0.14223523857071996 -0.45868238667026162
0.40927181765437126 -0.090407210402190685 -0.23141862545162439
-0.005025884136557579 0.17587698344141245 0.028187334537506104
0.40854770271107554 0.35867105331271887 0.15574944764375687
-0.35757071897387505 0.26697888737544417 0.39557471079751849
-0.14022580208256841 -0.41916917124763131 0.026566000655293465
0.049030273221433163 0.17982113175094128 0.092295616399496794
0.47744839265942574 0.47149239806458354 0.097514759749174118
0.23394519416615367 -0.44776817038655281 -0.32192479074001312
-0.20582101680338383 0.19290623860433698 -0.092510007321834564
0.12673851568251848 -0.15514455270022154 -0.21438016183674335
-0.13964207796379924 0.47369471192359924 -0.10660595400258899
-0.25787385413423181 -0.11758151417598128 -0.068003204185515642
-0.080256795976310968 0.49765492510050535 -0.1418790714815259
0.45278177969157696 -0.007396230474114418 0.073824496474117041
0.08523575821891427 0.39174052979797125 0.23098635952919722
0.11229895846918225 0.10119327809661627 0.43479023361578584
-0.40048025501891971 0.33162383968010545 -0.37484501209110022
0.17946771532297134 0.41541893035173416 -0.038433762732893229
0.047517905943095684 0.48218571534380317 0.080082107335329056
0.21046290639787912 0.20371968764811754 0.4242310612462461
-0.46076894225552678 0.10183904925361276 0.45093010505661368
-0.17176316073164344 0.084284858778119087 0.19916969491168857
-0.010449121240526438 -0.35808340180665255 0.14435488451272249
0.13669956661760807 -0.29796768631786108 0.43701851787045598
0.24260030407458544 0.48594413325190544 0.015264709945768118
0.45161901274695992 0.389513298869133 -0.24502998543903232
0.36415985785424709 -0.21806332748383284 -0.44556193659082055
0.31554323108866811 -0.44823926547542214 0.22572652250528336
-0.0031100925989449024 -0.049001323990523815 -0.49974425369873643
0.4282738184556365 -0.022060614079236984 -0.014440564438700676
0.015237879008054733 -0.1615169276483357 -0.42578162811696529
-0.035390966106206179 -0.21635911846533418 0.37834733678027987
0.0024826130829751492 0.047815278638154268 -0.4924654196947813
