0.25002000000000002 0.20257600000000001 -0.027099999999999999 0.4436926247891973 0.51004145573181814 0.73688165138144146
0.25314199999999998 0.202568 -0.029419000000000001 0.28012583729827256 0.45442053708365271 0.84559534693288518
0.256272 0.20255999999999999 -0.032104000000000001 0.46862446681261216 0.49338882644224524 0.73277457314411421
0.25938600000000001 0.20255999999999999 -0.033325 0.30272418552015262 0.26529243718841999 0.9154113776176197
0.26250699999999999 0.20255100000000001 -0.034790000000000001 0.46804457842399472 0.34406526705549512 0.81397381076662156
0.265629 0.202543 -0.036498999999999997 0.53672762316704858 0.58678914118546954 0.60630187391782808
0.26877600000000001 0.20253599999999999 -0.040527000000000001 0.31422784946177185 0.42597984964482916 0.8484114722934849
0.27188099999999998 0.20253599999999999 -0.040282999999999999 0.33310147080106783 0.46275338604895777 0.82152462765907985
0.27501999999999999 0.202518 -0.043213000000000001 0.46330412219205674 0.5868680958767547 0.66402946350432368
0.27814100000000003 0.202518 -0.0448 0.46233028905307644 0.53849750970200105 0.7044651416988934
0.28127999999999997 0.20250099999999999 -0.047606999999999997 0.47666722256368627 0.35463467786790609 0.8043771529493785
0.28441699999999998 0.20250099999999999 -0.049561000000000001 0.60774842871598667 0.30141456337413286 0.73470477634164755
0.28755599999999998 0.20249400000000001 -0.052002 0.57371927894753805 0.35414284816069802 0.73853167302462097
0.29070200000000002 0.20247799999999999 -0.055176000000000003 0.63801763854301674 0.48368823129663718 0.59914871927854707
0.29385699999999998 0.202461 -0.059204 0.61989897329275023 0.48098074515008993 0.61998611734897602
0.29700399999999999 0.202454 -0.061890000000000001 0.5412139624506378 0.43938944044804334 0.71695492638745084
0.30015900000000001 0.20244400000000001 -0.065062999999999996 0.72169479064247943 0.41460418251366599 0.55431038327067506
0.30332900000000002 0.202429 -0.069335999999999995 0.64938977232835871 0.34708567658478467 0.67662726571207921
0.30646699999999999 0.20241899999999999 -0.071166999999999994 0.56427671046286776 0.36494397063064088 0.74054553697226955
-0.11461499999999999 0.200188 0.15429699999999999 0.022215814308560858 0.79745845989572306 0.60296472727295491
-0.11156000000000001 0.200188 0.15478500000000001 -0.40373740711073525 0.20112672855627911 0.89249321855112662
-0.108413 0.20019500000000001 0.15832499999999999 -0.56969139526745194 -0.38916748986761512 0.72387870461035353
-0.1053 0.20020499999999999 0.160522 -0.40400604856883404 -0.053685895867805582 0.91317957560639085
-0.102252 0.200212 0.16076699999999999 -0.21290762489811929 0.27285096793913555 0.93820183998696072
-0.099163000000000001 0.200212 0.16223099999999999 -0.37608890283981583 0.043093949740230501 0.92558092496363054
-0.096065999999999999 0.20022000000000001 0.16394 0.020109594179485366 -0.19178311204578904 0.98123128881827271
-0.093051999999999996 0.200212 0.16272 0.012220568239385448 -0.48908697323719152 0.87214940825617093
-0.089995000000000006 0.20022000000000001 0.162964 -0.08230151172371844 -0.58351126498636308 0.8079239226573286
-0.086947999999999998 0.20022000000000001 0.162964 0.1438658438211691 -0.51025572094961014 0.84790430958912844
-0.083908999999999997 0.200212 0.16223099999999999 0.064283589084039972 -0.52818992883106097 0.84668944676068392
-0.080861000000000002 0.200212 0.16223099999999999 0.11408863489289438 -0.52535014750397402 0.84320282607794228
-0.077829999999999996 0.200212 0.16137699999999999 0.14043949641721082 -0.48269640107767092 0.86445412384506815
-0.074782000000000001 0.200212 0.16137699999999999 0.045044558745892388 -0.41268759427241242 0.90975817515482471
-0.071750999999999995 0.20020499999999999 0.16064500000000001 0.20314393276582451 -0.42588505644936669 0.88167707312459587
-0.068710999999999994 0.20020499999999999 0.16015599999999999 0.54462956387029082 -0.32686606355027453 0.77235821654048897
-0.065739000000000006 0.200188 0.15661600000000001 0.71239756812136934 -0.16141913638884131 0.68295941851784969
-0.062772999999999995 0.20018 0.15246599999999999 0.61642383454102034 -0.47264596355980976 0.62978365280496418
-0.052197 0.19986699999999999 0.072510000000000005 0.82306519779932352 0.081288838581694708 0.56209946174462733
-0.049248 0.19984199999999999 0.066406000000000007 0.68387915379472852 0.089213017787007187 0.72412039086214186
-0.046207999999999999 0.19983300000000001 0.064452999999999996 0.48763530133954208 0.18026182608410249 0.85423503027230097
-0.022676000000000002 0.19959399999999999 0.002686 0.41185144382536715 0.19103112698268004 0.89100252342105501
-0.019595000000000001 0.19958699999999999 0.0018309999999999999 0.5354797890957862 0.29733048473750057 0.79047832248309968
-0.016548 0.199577 -0.001343 0.062788490521813914 0.24130893343369067 0.96841499580659463
-0.013450999999999999 0.199577 -0.0010989999999999999 0.017629527146908637 0.57011240280650155 0.82137753069996611
-0.010362 0.199577 -0.0018309999999999999 -0.32353837294801968 0.55424123272824077 0.76690258649585219
-0.0072240000000000004 0.19958699999999999 0.00073200000000000001 -0.51896472478255085 0.18876048545324084 0.83369364490970432
-0.0041019999999999997 0.19959399999999999 0.0025630000000000002 -0.35177302212642164 0.3012408869009271 0.88628983349871893
-0.00098900000000000008 0.19959399999999999 0.003418 -0.21007042078736088 0.41743479560971491 0.88409196904196385
0.002117 0.19959399999999999 0.0042719999999999998 -0.34823616673003616 0.28504535111223106 0.89301776017640067
0.0052300000000000003 0.199602 0.0053709999999999999 -0.13127180256986584 0.35048643877955266 0.92732247362052267
0.008319 0.199602 0.0050049999999999999 -0.023488301899705182 0.51185831210493205 0.85874872227151422
0.011424 0.199602 0.0057369999999999999 -0.053624132342611534 0.60080260628097337 0.79759681588913811
0.014522 0.199602 0.0059810000000000002 -0.059233366877905605 0.56110629674346202 0.82562166396185699
0.017611000000000002 0.199602 0.0051269999999999996 0.034920203813292396 0.65207364748773722 0.75735100027508795
0.020707 0.199602 0.0054929999999999996 -0.052535032386914149 0.65587533582383051 0.75303891946570956
0.023812 0.199602 0.0061040000000000001 -0.10771597266453513 0.67124233854442883 0.73336961498165421
0.026901000000000001 0.199602 0.0058589999999999996 0.10511894676109605 0.72131645771555852 0.68458204392206823
0.029989999999999999 0.199602 0.0053709999999999999 -0.026487028214523475 0.71225117386494219 0.70142476621828442
0.033094999999999999 0.199602 0.0059810000000000002 0.060290010991449344 0.71364015652519586 0.69791320489681596
0.036176 0.19959399999999999 0.0046389999999999999 0.070690643208929552 0.68754596090726439 0.72269176320393613
0.039281000000000003 0.199602 0.0059810000000000002 0.02548190307846503 0.68197329423392661 0.73093303288825695
0.042361999999999997 0.19959399999999999 0.00415 0.06726162892490592 0.4782692955632179 0.8756336872207644
0.045450999999999998 0.19959399999999999 0.0039060000000000002 -0.17723970636208436 0.33806409567597562 0.92428283209387108
0.048572999999999998 0.199602 0.0062259999999999998 0.010992678710672084 0.53869736790143974 0.84242762705814966
0.051644000000000002 0.19959399999999999 0.0040280000000000003 0.14779967007668085 0.5368382565289489 0.83063827497424103
0.054758000000000001 0.199602 0.0058589999999999996 -0.38783097640891223 0.033046719101394534 0.92113790937858131
0.057862999999999998 0.199602 0.0065919999999999998 -0.080708151994594773 0.21777297744837973 0.97265673518198847
0.060951999999999999 0.199602 0.0057369999999999999 -0.037918318906871716 0.37430919785305378 0.92652837274088928
0.064049999999999996 0.199602 0.0059810000000000002 0.13314765441273074 0.39638372097821878 0.90837858179717645
0.067139000000000004 0.199602 0.0052490000000000002 0.11320641387125994 0.4564826919375124 0.88250091207878723
0.070226999999999998 0.199602 0.0051269999999999996 0.026618391731440358 0.58697986728010154 0.80916382558136268
0.073324 0.199602 0.0052490000000000002 -0.06950831761404315 0.61372922041343736 0.78645091251341281
0.076421000000000003 0.199602 0.0053709999999999999 -0.12923687681722049 0.58588992696278286 0.80001926423935299
0.079527 0.199602 0.0063480000000000003 -0.10228551461191641 0.51453720531729619 0.8513454867707011
0.082614999999999994 0.199602 0.0058589999999999996 -0.0035945845715062768 0.3474824947961791 0.93767958001226703
0.085721000000000006 0.199602 0.0068360000000000001 0.0030047674882339478 0.3787767480681366 0.92548319622523068
0.088801000000000005 0.199602 0.0052490000000000002 0.071539934281994136 0.41071287981680893 0.9089537766880732
0.091907000000000003 0.199602 0.0058589999999999996 -0.069336575927616342 0.35455805060142603 0.93245966561152149
0.095003000000000004 0.199602 0.0063480000000000003 -0.040997127961991099 0.42319370376095139 0.90511122222407359
0.098091999999999999 0.199602 0.0057369999999999999 0.14501526978780038 0.55441283595403001 0.81951020668310248
0.10118099999999999 0.19959399999999999 0.0047609999999999996 0.17451864358035885 0.52847700148809174 0.83081604578933543
0.104279 0.19959399999999999 0.0045170000000000002 -0.029629479294649961 0.42745954075838533 0.90354880054779463
0.107375 0.199602 0.0053709999999999999 -0.24911145591657277 0.25012013585020004 0.93561926026210207
0.110473 0.199602 0.0061040000000000001 -0.0074576603425928886 0.33000252674801822 0.94395058961904266
0.113569 0.199602 0.0061040000000000001 0.009536365405909521 0.37732568369369629 0.92603152546764278
0.11666600000000001 0.199602 0.0058589999999999996 -0.25374346889619831 0.14328667720361168 0.95659980144701673
0.119772 0.19961200000000001 0.0073239999999999998 0.060742484705938501 0.26842278391498775 0.96138418939936632
0.122852 0.199602 0.0057369999999999999 -0.012434860564341933 0.40744648220665414 0.91314442361554615
0.12595700000000001 0.199602 0.0068360000000000001 -0.18048751333347973 0.36680061382767981 0.91262345314282523
0.129054 0.19961200000000001 0.0079349999999999993 -0.21513174268565424 0.21513711288939602 0.95259348934718668
0.13215199999999999 0.19961200000000001 0.0084229999999999999 -0.060832960488986516 0.38452124290867662 0.92110952913869681
0.135241 0.19961200000000001 0.0076899999999999998 0.079313859808123249 0.54552707690805513 0.83433178053007795
0.13833699999999999 0.19961200000000001 0.0078120000000000004 0.099321978023120427 0.51720472903017634 0.85007906276439771
0.14143500000000001 0.199602 0.0065919999999999998 -0.020053175912759718 0.5143553688833743 0.85734265299042478
0.14453099999999999 0.19961200000000001 0.0076899999999999998 -0.0053384353592277022 0.54952647024360513 0.83545925071754379
0.14762 0.199602 0.0065919999999999998 0.20013353334905079 0.56474098383317228 0.80063361783550213
0.15071799999999999 0.199602 0.0062259999999999998 0.089720124491027176 0.39033805139987804 0.91628953114758471
0.15381400000000001 0.199602 0.0064700000000000001 0.12308172557424038 0.2971044356357011 0.9468790013276559
0.15690299999999999 0.199602 0.0051269999999999996 0.0068367605161436876 0.37272785121472413 0.92791551750927159
0.16 0.199602 0.0063480000000000003 0.01378105880154493 0.18199797785110422 0.98320232835180843
0.16309699999999999 0.199602 0.0050049999999999999 0.2417890660060176 0.073292621061502305 0.96755684032405709
0.16619400000000001 0.19959399999999999 0.0046389999999999999 0.11960625022815152 0.24622040019214234 0.96180552058905444
0.169291 0.19959399999999999 0.0046389999999999999 0.040821564990311726 0.43676420605409083 0.89864933547056136
0.17238000000000001 0.19959399999999999 0.0032959999999999999 0.22816290685384005 0.48938754588237271 0.84168968026894231
0.17547699999999999 0.19958699999999999 0.002441 0.24338219133411967 0.409231354283288 0.87937182557372628
0.17857500000000001 0.19958699999999999 0.0018309999999999999 0.047170447438557729 0.41620339976936765 0.90804717879021368
0.181671 0.19958699999999999 0.0023189999999999999 0.18484769399533219 0.53158510377013468 0.82658853577478508
0.184776 0.199577 0.00048799999999999999 0.24418786885817734 0.59412579446154046 0.76641165509009901
0.18787400000000001 0.199577 0 0.18341708437731996 0.61249057615238733 0.76890406897287256
0.19097 0.199577 -0.0012210000000000001 0.21337896049580127 0.6306663387262883 0.74614300801877775
0.19406799999999999 0.19957 -0.0019530000000000001 0.23584381752441702 0.56838907808341566 0.78823318228237149
0.19717299999999999 0.19957 -0.002686 0.21987217756281172 0.47651246103874068 0.85122975747361529
0.20027 0.19956199999999999 -0.0039060000000000002 0.13681760119776259 0.48842705235717943 0.86181202041290128
0.20336699999999999 0.19956199999999999 -0.0039060000000000002 0.22804366050358169 0.55097738352728809 0.80275775408621919
0.20647199999999999 0.19956199999999999 -0.0053709999999999999 0.38813420766769369 0.53387050062666241 0.75122175514212075
0.20957799999999999 0.19955300000000001 -0.0072020000000000001 0.42217937506012526 0.5025856087779752 0.75443507416020505
0.21268300000000001 0.199545 -0.0092770000000000005 0.29630810710467692 0.3447597480431524 0.89069760401230746
0.21578800000000001 0.199545 -0.0095209999999999999 -0.076900453643810623 0.22341506289710586 0.97168514957266805
0.21887699999999999 0.199545 -0.0080569999999999999 0.052356190721741247 0.39115898559850559 0.91883267099002131
0.22198200000000001 0.199545 -0.0089110000000000005 0.51512987070275773 0.36554493938538074 0.77525358019134516
0.22509599999999999 0.19953699999999999 -0.011475000000000001 0.12921648145477305 0.17144765213999008 0.97668255001107362
0.22820099999999999 0.19952800000000001 -0.012085 0.44839547812325797 0.50184400556923214 0.73965808943919709
0.23133100000000001 0.19951199999999999 -0.016601999999999999 0.44509376482569585 0.56945059328424119 0.69109880792945522
0.23443600000000001 0.19951199999999999 -0.017333999999999999 0.45541475808582915 0.5847906173697347 0.67128036762142118
0.23755799999999999 0.19950499999999999 -0.020386000000000001 0.32537517848514685 0.59461854299427608 0.73522770728062414
0.24066399999999999 0.19949500000000001 -0.021239999999999998 0.33298534583860806 0.59260213495147196 0.73344629599426026
0.24377699999999999 0.19949500000000001 -0.022339000000000001 0.37816994562781359 0.5422454917002546 0.75030481736065491
0.24689 0.199488 -0.024292000000000001 0.32298677049335289 0.5200017963566077 0.79074501444661383
0.250004 0.19947999999999999 -0.025269 0.4298419179313821 0.47158939294954788 0.76996062889380767
0.25313400000000003 0.19947100000000001 -0.028441999999999999 0.41223627423704301 0.30364880570963043 0.85898699465956785
0.25623899999999999 0.19947100000000001 -0.028198000000000001 0.23333032096925274 0.2713389274387295 0.93377307081152505
0.259353 0.199463 -0.029541000000000001 0.3549792807857689 0.50572048099190314 0.78628016973476844
0.26248300000000002 0.19945499999999999 -0.032471 0.31985679826209373 0.64779099269785756 0.69141771627941861
0.265596 0.19945499999999999 -0.033203000000000003 0.38270223142599374 0.63373623054254735 0.67224801387530209
0.26872600000000002 0.199438 -0.035521999999999998 0.57951817025822505 0.56746489775135123 0.58492929500975366
0.27186500000000002 0.19943 -0.038696000000000001 0.39382724501185534 0.41738012050114925 0.81895905642273614
0.27498600000000001 0.19943 -0.039673 0.49440099341494637 0.32647595125872547 0.80559363885275581
0.27811599999999997 0.19941300000000001 -0.042113999999999999 0.533047023012858 0.35575278747946509 0.76765931601050752
0.281246 0.199406 -0.044434000000000001 0.52613729690411748 0.4042449596493225 0.74817481740870306
0.284385 0.19939599999999999 -0.046630999999999999 0.63887608808642971 0.38938673888755826 0.6634872354837682
0.28753899999999999 0.199381 -0.050415000000000001 0.45361680348795702 0.31984218193468339 0.83182496611284096
0.290661 0.199381 -0.051636000000000001 0.54309989546779658 0.38939758413494624 0.74391667881069579
0.29379899999999998 0.19937099999999999 -0.053832999999999999 0.55173405308143497 0.34271566679825255 0.76035222522286439
0.29694599999999999 0.19935600000000001 -0.056763000000000001 0.55369664091034243 0.43980545396735915 0.70710055331980082
0.300068 0.19935600000000001 -0.057617000000000002 0.70549771407950101 0.26408273688222755 0.65767262639507096
0.30326399999999998 0.19933100000000001 -0.064452999999999996 0.76028861921921465 0.31108214036510967 0.57025355538707712
0.30642599999999998 0.19931399999999999 -0.067992999999999998 0.47104549734196505 0.46364259969066912 0.75043432703064616
0.309581 0.19930600000000001 -0.070679000000000006 0.60312059939838603 0.46408801776014119 0.64874328848381513
0.31272800000000001 0.199299 -0.072875999999999996 0.5680726083802935 0.12577305765020497 0.8133109181471303
-0.114492 0.19714699999999999 0.159058 0.00045911796526675383 0.15762348466302106 0.98749917786972374
-0.111469 0.19714699999999999 0.15820300000000001 0.10184108479765613 0.57869560302317724 0.80915993010583365
-0.108455 0.19714000000000001 0.15673799999999999 -0.274103643991158 0.33971236761610779 0.89970145028194037
-0.105341 0.19714699999999999 0.15917999999999999 -0.57607862857778169 -0.19760356167583504 0.79314957360447902
-0.10219499999999999 0.19716500000000001 0.16284199999999999 -0.46148035394814252 -0.0922056720342673 0.88234573550542317
-0.099130999999999997 0.19717199999999999 0.16345199999999999 0.018742940588156135 0.039305656252163604 0.99905143389351858
-0.096099000000000004 0.19716500000000001 0.16284199999999999 0.2263036079780148 -0.22154399879704892 0.94852777166150803
-0.093108999999999997 0.197157 0.16015599999999999 0.26243204448226315 -0.2271793727245936 0.9378267188757845
-0.090045 0.197157 0.16076699999999999 -0.058524338408360473 -0.42988598869074457 0.90098442746877971
-0.086988999999999997 0.197157 0.16125500000000001 0.056491394772909584 -0.52853722386510182 0.84702840879487762
-0.083949999999999997 0.197157 0.16064500000000001 0.044391923693078185 -0.48722002382267482 0.87215021957060834
-0.080902000000000002 0.197157 0.16064500000000001 0.055940177199126903 -0.3836426733419096 0.92178576457114103
-0.077863000000000002 0.197157 0.16015599999999999 0.070334352248089427 -0.25658040746893318 0.96396035883065112
-0.074815000000000006 0.197157 0.159912 0.074269326457058513 -0.30705214015800442 0.94879030895767702
-0.071743000000000001 0.197157 0.16076699999999999 0.2316653723729927 -0.43329513749949822 0.87096870154017225
-0.068745000000000001 0.19714699999999999 0.15856899999999999 0.46339814649475997 -0.46255859634774832 0.75584502563026879
-0.065739000000000006 0.19714000000000001 0.15661600000000001 0.54230819433652611 -0.3865162857180206 0.74599395656412792
-0.062740000000000004 0.197132 0.154053 0.7081553705849889 -0.0086272204637802344 0.70600392504483045
-0.052262000000000003 0.19677700000000001 0.069335999999999995 0.77522887955930797 -0.058417150859349898 0.62897346588126901
-0.049272999999999997 0.19675999999999999 0.065308000000000005 0.64165883073525842 -0.19063108126024969 0.74292242919231433
-0.046200999999999999 0.19675300000000001 0.064819000000000002 0.28839022683575227 -0.2602856056918329 0.92145671658263961
-0.022668000000000001 0.196497 0.0031740000000000002 0.60897004555970091 0.39959671466366559 0.68518460960606864
-0.019612000000000001 0.196489 0.00060999999999999997 0.46752793443267121 0.27041453834483892 0.84160181082081065
-0.016563999999999999 0.19647200000000001 -0.002075 0.19537921127560909 0.4251313550623077 0.88379312893018525
-0.013434 0.19648199999999999 -0.00036600000000000001 -0.31431475358750738 0.36188909234935429 0.87763461674878407
-0.010304000000000001 0.196489 0.0018309999999999999 -0.22442992683374272 0.39654998989197676 0.89015690384227997
-0.0072069999999999999 0.196489 0.0018309999999999999 -0.27704873024463916 0.44293957575244824 0.85267140992417145
-0.0041019999999999997 0.196497 0.0025630000000000002 -0.40573073670924698 0.36755826774245609 0.83682942652821246
-0.00097199999999999999 0.19650699999999999 0.0043949999999999996 -0.1871202944213477 0.43669724705589547 0.87993267346398163
0.0021250000000000002 0.19650699999999999 0.0045170000000000002 -0.25641836996207629 0.33714882697350496 0.90585886760376821
0.0052389999999999997 0.19650699999999999 0.0061040000000000001 -0.25251031798768214 0.32354876819369993 0.91189622979267726
0.0083440000000000007 0.19651399999999999 0.0063480000000000003 -0.1552968833440341 0.40393470966616973 0.90150963852336974
0.011449000000000001 0.19651399999999999 0.0075680000000000001 -0.19398864738163391 0.49679151353078344 0.84591169561062185
0.014538000000000001 0.19651399999999999 0.0070800000000000004 -0.020889334001306381 0.55058843121148271 0.83451543732938827
0.017642999999999999 0.19651399999999999 0.0079349999999999993 -0.15353712534947642 0.49745733482571547 0.8537930376663394
0.020757000000000001 0.196522 0.0090329999999999994 -0.04008771449115836 0.55941360005286556 0.82791871534756833
0.023837000000000001 0.19651399999999999 0.0080569999999999999 -0.11498527811061333 0.49595298119474046 0.86070263521257706
0.026959 0.196522 0.01001 0.0033886909393308824 0.45088480975997325 0.89257571393211821
0.030023999999999999 0.19651399999999999 0.0079349999999999993 -0.050297179585018816 0.5735358245484321 0.81763491344569106
0.033145000000000001 0.196522 0.0097660000000000004 -0.053060340387385052 0.62869449001524536 0.77584008565067419
0.036208999999999998 0.19651399999999999 0.0076899999999999998 0.15059616704234438 0.73191410071672935 0.66454687091594655
0.039314000000000002 0.19651399999999999 0.0080569999999999999 0.097897071881768355 0.64200701501981705 0.76042301121304878
0.042395000000000002 0.19651399999999999 0.0069579999999999998 0.14359016433334662 0.59521192086784336 0.79063558860168615
0.045483999999999997 0.19651399999999999 0.0069579999999999998 -0.10235863561821859 0.65991288699870321 0.74433708176296942
0.048589 0.19651399999999999 0.0078120000000000004 -0.12475686335665143 0.62615187074253653 0.7696554812453632
0.051678000000000002 0.19651399999999999 0.0070800000000000004 0.33054653280103602 0.6723533388971098 0.66232920615591284
0.05475 0.19650699999999999 0.0051269999999999996 0.0027014531060743879 0.51601482190829373 0.85657539406760186
0.057847000000000003 0.19650699999999999 0.0053709999999999999 -0.27973431380462793 0.25124643877018138 0.9266196310706758
0.060969000000000002 0.19651399999999999 0.0075680000000000001 -0.20485644842909448 0.36485024677156269 0.90825003879314414
0.064065999999999998 0.19651399999999999 0.0083009999999999994 0.0057808097277713454 0.47246071415310209 0.88133277246499364
0.067155000000000006 0.19651399999999999 0.0072020000000000001 0.062439720940110507 0.56726475049862024 0.82116501635825856
0.070250999999999994 0.19651399999999999 0.0075680000000000001 -0.043956804791231041 0.55280817903098967 0.83214837409502096
0.073348999999999998 0.19651399999999999 0.0081790000000000005 -0.067815343672301256 0.43416982605742893 0.89827481390934549
0.076446 0.196522 0.0085450000000000005 -0.081242245868823476 0.32073248629934203 0.94367916672904895
0.079550999999999997 0.196522 0.0091549999999999999 -0.11964711981345896 0.30420646372965898 0.94506242870269663
0.082640000000000005 0.196522 0.0086669999999999994 0.17236761334928807 0.5007024799564187 0.8482844053934756
0.085721000000000006 0.19651399999999999 0.0073239999999999998 -0.075910722335816722 0.44995803762961895 0.88981758052252324
0.088826000000000002 0.19651399999999999 0.0083009999999999994 -0.020721235680821012 0.58149811575653254 0.81328381993216992
0.091913999999999996 0.19651399999999999 0.0075680000000000001 0.04307439107993051 0.6543179719497918 0.75499178036360415
0.095011999999999999 0.19651399999999999 0.0075680000000000001 -0.087246790314321698 0.56278466191258381 0.82198626624523818
0.098108000000000001 0.19651399999999999 0.0080569999999999999 -0.068215566502669606 0.58947333904277344 0.80490236615659372
0.101206 0.196522 0.0087889999999999999 0.085610659765049557 0.68057250811506476 0.72766192433888077
0.104286 0.19651399999999999 0.0068360000000000001 0.16120735000082004 0.71199239194615949 0.68343179916982166
0.10738399999999999 0.19651399999999999 0.0068360000000000001 -0.017817503399056547 0.59577716799761404 0.80295211729303473
0.11047999999999999 0.19651399999999999 0.0068360000000000001 0.014463242763356001 0.44990081130777337 0.89296140711308203
0.113578 0.19651399999999999 0.0067140000000000003 0.036861244591813627 0.35813743467604325 0.93294095554370715
0.11666600000000001 0.19650699999999999 0.0064700000000000001 -0.084416019516468169 0.36889598808640006 0.92562934570094191
0.119772 0.19651399999999999 0.0073239999999999998 -0.13042523602092168 0.32848727121166571 0.93545997801124592
0.12286 0.19651399999999999 0.0069579999999999998 -0.02905474859166193 0.40708556880389174 0.9129277962992951
0.12595700000000001 0.19651399999999999 0.0083009999999999994 -0.10179153391653208 0.43334033938011857 0.89546336267255688
0.129054 0.19651399999999999 0.0074460000000000004 -0.013503681067578105 0.33218308098420091 0.94311825944865957
0.13215199999999999 0.19651399999999999 0.0076899999999999998 -0.12630713409369948 -0.00026717683961907266 0.99199114738669547
0.13524800000000001 0.196522 0.0093989999999999994 -0.1152579987246352 -0.092458522639212323 0.98902326328624157
0.138346 0.196522 0.0089110000000000005 0.050652516642643287 0.11428972545239538 0.99215532111347504
0.14143500000000001 0.196522 0.0086669999999999994 0.054295102700142955 0.16303701810133586 0.98512485125054361
0.14453099999999999 0.196522 0.0093989999999999994 -0.13038324995396181 0.062679932918545983 0.98948038593029686
0.14762900000000001 0.196522 0.0091549999999999999 0.16701226393987523 0.26375616803950652 0.95002083530562265
0.15071799999999999 0.19651399999999999 0.0079349999999999993 0.31288894914006138 0.43144621478547623 0.84614104572069582
0.15381400000000001 0.19650699999999999 0.0061040000000000001 0.14882957563642685 0.32776229648703353 0.93296389770313559
0.15690299999999999 0.19650699999999999 0.0061040000000000001 0.064134435927280103 0.29994778486056289 0.95179730010414032
0.16 0.19650699999999999 0.0065919999999999998 0.03980472900471365 0.23552994402819602 0.9710516098616675
0.16309699999999999 0.19650699999999999 0.0047609999999999996 0.25076758286719614 0.32952842854776876 0.91023438419001834
0.16619400000000001 0.196497 0.0045170000000000002 0.063028427774844409 0.30908149341724683 0.94894470213980109
0.169291 0.19650699999999999 0.0047609999999999996 -0.079238074328271804 0.15304665647671886 0.98503707976808885
0.17238000000000001 0.19650699999999999 0.0057369999999999999 0.057776111213620161 0.19026163727776715 0.98003185170351215
0.17547699999999999 0.19650699999999999 0.0048830000000000002 0.27851921907788585 0.37869495795705926 0.88261949526517125
0.17857500000000001 0.196497 0.003418 0.20012931995893485 0.31813321496002434 0.92668199120948347
0.181671 0.196497 0.0039060000000000002 -0.01237786613762981 0.19118482818433319 0.98147600576988436
0.18476899999999999 0.196497 0.002686 0.21461652190551445 0.42239846181903673 0.88063572944668322
0.187865 0.196489 0.002686 0.13825197658446003 0.44433996955614136 0.88512619576269314
0.19096299999999999 0.196489 0.0018309999999999999 0.099052884016208556 0.52401965751092727 0.84592666627208413
0.19405900000000001 0.196489 0.001709 0.2633750858877319 0.64188175956266869 0.72015371336566913
0.19716500000000001 0.19648199999999999 -0.0012210000000000001 0.30224374601777848 0.59208254545136807 0.74705219186143179
0.200262 0.19647200000000001 -0.0014649999999999999 0.20176434905573651 0.43223781195251404 0.87889795845059182
0.20335900000000001 0.19647200000000001 -0.0015870000000000001 0.16269031831968261 0.24477361592329874 0.95583353010494132
0.20646400000000001 0.19647200000000001 -0.0028080000000000002 0.37249456492796479 0.38678866876001688 0.84358895489330599
0.20956900000000001 0.196465 -0.0051269999999999996 0.44007731965333768 0.45427953387991088 0.77457217728536121
0.212675 0.19645699999999999 -0.0061040000000000001 0.42556898597211285 0.42427877309714312 0.79929879324183295
0.21578 0.19644700000000001 -0.0085450000000000005 0.15483950067845256 0.38339312955214438 0.91051328229842976
0.21887699999999999 0.19644700000000001 -0.0079349999999999993 0.10545945308179946 0.027084167336362423 0.99405470253672845
0.22198200000000001 0.19644700000000001 -0.0090329999999999994 0.50841941124797652 -0.087869725700269977 0.85661462372038721
0.22512099999999999 0.19641500000000001 -0.016234999999999999 0.21458728921286152 0.051825353869185992 0.97532888196987655
0.22820099999999999 0.196432 -0.011475000000000001 -0.00625004769909144 0.035775373004438532 0.99934031220108033
0.23130600000000001 0.196432 -0.012817 0.48058086162459829 0.33112489819685648 0.81203345819878636
0.23441999999999999 0.19642299999999999 -0.014648 0.47796852278708762 0.468409410754283 0.74306037112845313
0.237542 0.196407 -0.0177 0.41084490366367377 0.52005255194720501 0.74883363195491326
0.240647 0.196407 -0.018187999999999999 0.26427813036861192 0.58701655065064318 0.76522456773883818
0.24376900000000001 0.19639799999999999 -0.020874 0.46364075693410034 0.57161916268357083 0.67697029577560319
0.24688199999999999 0.19639000000000001 -0.022949000000000001 0.39168527567879824 0.4862865897621339 0.78109410280320124
0.249996 0.196383 -0.023682000000000002 0.45058022189068525 0.38406535821546767 0.80589780013334522
0.25311800000000001 0.19637499999999999 -0.026367000000000002 0.56128448949714715 0.37237230606872801 0.73912014417345206
0.25623899999999999 0.19636500000000001 -0.028687000000000001 0.32845848251246273 0.27455113907442191 0.90373486006601944
0.259353 0.196358 -0.029541000000000001 0.16683656639817421 0.16523180125123421 0.97204115754824916
0.26245800000000002 0.196358 -0.029419000000000001 0.21484929431812477 0.30867159107645836 0.92658600766109744
0.26557199999999997 0.196358 -0.029907 0.49377017804739282 0.30838715589998861 0.81307341202806649
0.268702 0.19634099999999999 -0.033203000000000003 0.60187505671373065 0.24979251226011717 0.75851836953670582
0.27184799999999998 0.196325 -0.037231 0.62862035883951717 0.44189233918697596 0.63997469092171078
0.274978 0.19631599999999999 -0.039551000000000003 0.58215403318594994 0.22727050440395932 0.78066945596283055
0.27811599999999997 0.19630800000000001 -0.041992000000000002 0.50441835981846495 0.10481879988366866 0.85707358929615673
0.281246 0.196301 -0.043944999999999998 0.55339969550628088 0.16232646654308852 0.8169448544872483
0.28436899999999998 0.19629099999999999 -0.045532000000000003 0.62304845741036163 0.1251623311056535 0.7721042744285046
0.28753099999999998 0.19627600000000001 -0.050415000000000001 0.49046446133169563 0.20943460285131241 0.84592065780374615
0.29063600000000001 0.19627600000000001 -0.049926999999999999 0.48072864583816621 0.15689203505415447 0.86271945521540716
0.29380699999999998 0.19625100000000001 -0.055053999999999999 0.55185801013291813 0.013225359455156505 0.8338332126507183
0.29693700000000001 0.19625100000000001 -0.055786000000000002 0.62058250631048117 0.082626966496176124 0.77977569676737246
0.30010900000000001 0.19623399999999999 -0.060669000000000001 0.77106770263270075 0.021754900825168209 0.63638142826988298
0.30327999999999999 0.19620899999999999 -0.065551999999999999 0.71524153283234271 0.20788189856248671 0.66724408274760783
0.30643500000000001 0.19620099999999999 -0.068237000000000006 0.43554959632142093 0.15998835434226383 0.88583309693141488
0.30953999999999998 0.19620099999999999 -0.067627000000000007 0.46484898578455441 0.15138470923568473 0.87235204489053519
0.31271900000000002 0.196184 -0.072387999999999994 0.72301502081323821 0.28245869905993648 0.630449334208389
-0.11455799999999999 0.19409199999999999 0.15661600000000001 -0.37048293172327057 0.34584897291466132 0.86205039599527133
-0.111461 0.194101 0.158447 -0.27167198722551278 0.22340691986888078 0.93610025078067371
-0.108372 0.194101 0.15978999999999999 -0.13286865112638208 0.51801616466121059 0.84498826897037183
-0.105325 0.194101 0.15978999999999999 -0.085156740938754971 0.45241328854933816 0.88773337540990482
-0.102261 0.194109 0.16015599999999999 -0.2684425307609708 -0.24142513353006692 0.93255161389524954
-0.099154999999999993 0.19411700000000001 0.16259799999999999 -0.034999605329553235 -0.56638276929022724 0.82339880147951938
-0.096147999999999997 0.194109 0.16076699999999999 0.16518407001838581 -0.49452532578285668 0.85332228681285505
-0.093092999999999995 0.194109 0.160889 0.14344595675765681 -0.27350370483525438 0.95111459926302799
-0.090053999999999995 0.194109 0.160522 0.10533399574280636 -0.10175434107503038 0.98921726805249455
-0.087029999999999996 0.194101 0.15942400000000001 0.243802904170418 -0.14324384510082233 0.95918785686579755
-0.084000000000000005 0.194101 0.158447 0.10497341921989367 -0.35687435923207683 0.92823556976662946
-0.080926999999999999 0.194101 0.15954599999999999 -0.078126862097415831 -0.49052823508041726 0.86791603511382487
-0.077879000000000004 0.194101 0.15942400000000001 0.0057488616159441629 -0.46965241662211599 0.88283268978392915
-0.074806999999999998 0.194109 0.16039999999999999 0.21815897363153688 -0.41019684428399705 0.88551974069666262
-0.071817000000000006 0.19409199999999999 0.15759300000000001 0.34654147207564007 -0.48654927570892809 0.80198429563100915
-0.068802000000000002 0.19408400000000001 0.15588399999999999 0.54092533268783061 -0.37419274957073179 0.75324602264151064
-0.065811999999999996 0.194077 0.153198 0.46525741366286855 -0.47737404704631814 0.7454190487493314
-0.062772999999999995 0.19406699999999999 0.15271000000000001 0.29293613250310779 -0.59472078965014619 0.74866254389546438
-0.052255000000000003 0.19369700000000001 0.069823999999999997 0.64498388567723086 0.45830208774395775 0.6115185880954318
-0.049239999999999999 0.193689 0.066650000000000001 0.67598082259799719 0.48054626878573758 0.55868167236436217
-0.046241999999999998 0.19367200000000001 0.062988000000000002 0.63576775517067941 0.31962565032401596 0.7025943389610998
-0.022617999999999999 0.19341700000000001 0.0059810000000000002 0.67726020954165889 0.3866650672946807 0.62594627110127288
-0.019570000000000001 0.19340099999999999 0.0029299999999999999 0.25488898181668052 0.49127891752559466 0.83287251854250532
-0.016473999999999999 0.19340099999999999 0.0032959999999999999 0.034277746177506077 0.54657165196975654 0.83671050273080816
-0.01336 0.193409 0.0042719999999999998 -0.056387663869947993 0.51831933875286529 0.85332613603362817
-0.010296 0.19340099999999999 0.002075 -0.044050786468367645 0.50862524344706894 0.8598603897958832
-0.0071910000000000003 0.19340099999999999 0.0028080000000000002 -0.36226376995266713 0.40078757413608984 0.84150714875025823
-0.0040610000000000004 0.193409 0.0050049999999999999 -0.40677458348761864 0.52822182076938495 0.74532955549310542
-0.00093099999999999997 0.19341700000000001 0.0073239999999999998 -0.2159801215574596 0.56231234040773936 0.79822140970860678
0.00215 0.19341700000000001 0.0065919999999999998 -0.037108049965357055 0.569182574542071 0.82137335570703063
0.0052630000000000003 0.19342599999999999 0.0076899999999999998 -0.3209881546114875 0.46118217804608425 0.82721073690552493
0.0083680000000000004 0.19342599999999999 0.0081790000000000005 -0.16138506314293985 0.61308159732448042 0.77336008199053896
0.011474 0.19342599999999999 0.0089110000000000005 -0.24090762092430162 0.50368420887543564 0.82961782521238026
0.014596 0.19343399999999999 0.010742 -0.12033886495851703 0.46790429145608048 0.87554790366802848
0.017668 0.19343399999999999 0.0097660000000000004 0.0874228128317599 0.51043804151907557 0.8554590916968231
0.020764999999999999 0.19343399999999999 0.0098879999999999992 -0.1412919169265546 0.3039588728958153 0.94214945619000667
0.023862000000000001 0.19343399999999999 0.01001 0.047958908447047983 0.46618718474828741 0.88338522280884557
0.026950999999999999 0.19343399999999999 0.0097660000000000004 -0.045154054646192369 0.36556361379059521 0.92969046226223562
0.030047000000000001 0.19342599999999999 0.0095209999999999999 -0.069713990266914355 0.42530048098607798 0.902363264120429
0.033154000000000003 0.19343399999999999 0.010985999999999999 -0.23632696516395627 0.4331710886174806 0.8697771976330152
0.036249999999999998 0.19343399999999999 0.01123 -0.016252411374984004 0.56953596381476057 0.8218057222033015
0.039348000000000001 0.193441 0.011475000000000001 0.16829218927101544 0.69135931181679444 0.70263791599555525
0.042410999999999997 0.19342599999999999 0.0089110000000000005 0.18642778582899075 0.67541448362229795 0.71348437683254462
0.045517000000000002 0.19342599999999999 0.0093989999999999994 -0.16869977813959 0.63923630478772808 0.75027816941250791
0.048621999999999999 0.19343399999999999 0.010498 -0.16031944751582652 0.65480568212904766 0.73859812712985717
0.051719000000000001 0.19343399999999999 0.010985999999999999 0.098480509056974738 0.72384759062925097 0.68289549337809186
0.054790999999999999 0.19342599999999999 0.0090329999999999994 0.11621497924608205 0.80418379165809994 0.58290866165569599
0.057896999999999997 0.19343399999999999 0.0097660000000000004 0.027170246046860535 0.7786526709977275 0.62686664903937739
0.060985999999999999 0.19342599999999999 0.0096439999999999998 0.024522659357054645 0.58419536786696136 0.81124251080724541
0.064074999999999993 0.19342599999999999 0.0091549999999999999 0.0021182659749531011 0.37302396476009347 0.92781928987487639
0.067170999999999995 0.19342599999999999 0.0092770000000000005 -0.048888863312318662 0.37705528179466369 0.92489955860881246
0.070276000000000005 0.19343399999999999 0.01001 -0.021825653727155735 0.46323660531509808 0.88596585054703225
0.073357000000000006 0.19342599999999999 0.0090329999999999994 0.12408875497392617 0.47406046006618696 0.87170445742284486
0.076446 0.19342599999999999 0.0084229999999999999 0.14129027507650435 0.29864285922365991 0.94384824034561976
0.079543000000000003 0.19342599999999999 0.0080569999999999999 -0.22391526580405738 0.10908901590346598 0.96848414563642271
0.082640000000000005 0.19342599999999999 0.0092770000000000005 -0.095264829892103414 0.348920945085686 0.93229758460812295
0.085736999999999994 0.19342599999999999 0.0093989999999999994 -0.04325164390142288 0.50419263651432189 0.86250743798796381
0.088842000000000004 0.19343399999999999 0.010253999999999999 -0.20693201275035081 0.4741983866271845 0.85575407227734757
0.091939000000000007 0.19343399999999999 0.011108 -0.014431912239700419 0.52690707847018714 0.84980035924157948
0.095028000000000001 0.19343399999999999 0.010619999999999999 0.0031791906577523987 0.56144461015519098 0.82750821293474019
0.098125000000000004 0.19343399999999999 0.011108 -0.077494847625291921 0.54780073255773587 0.83301194829410496
0.10122200000000001 0.19343399999999999 0.010742 -0.0028802854998642583 0.56437572794563839 0.82551301725731141
0.104311 0.19343399999999999 0.010864 0.081846433480355002 0.64154572770769946 0.76270586767543869
0.1074 0.19343399999999999 0.01001 0.10826949098311787 0.73520348401835289 0.66914389663922968
0.110497 0.19342599999999999 0.0093989999999999994 0.13727455328184421 0.71660906370496436 0.68383268921364415
0.11358500000000001 0.19342599999999999 0.0084229999999999999 0.090291208605718529 0.6680257919104633 0.73863999281850234
0.116674 0.19342599999999999 0.0084229999999999999 -0.053407662954340879 0.62695410447372901 0.77722337356856419
0.11978 0.19342599999999999 0.0092770000000000005 -0.11674560950838796 0.57783635416818835 0.80775962418415714
0.12286900000000001 0.19342599999999999 0.0093989999999999994 -0.046596949742613532 0.60856067405696712 0.79213801213299562
0.12596599999999999 0.19342599999999999 0.0096439999999999998 -0.058945996771984303 0.56338984101108536 0.82408570944414594
0.12906300000000001 0.19342599999999999 0.0096439999999999998 -0.00060297758620644936 0.5551254598505907 0.83176640966301407
0.13216 0.19342599999999999 0.0098879999999999992 0.10498634488536251 0.63694659412792831 0.76372567301122185
0.135241 0.19341700000000001 0.0074460000000000004 0.079996335935041976 0.42190381726125209 0.90310450957646737
0.13833699999999999 0.19342599999999999 0.0081790000000000005 -0.065557023854829727 0.21036538019888379 0.97542231030311999
0.14143500000000001 0.19342599999999999 0.0085450000000000005 0.030203837223399411 0.30932543412859126 0.950476461580265
0.14453099999999999 0.19341700000000001 0.0078120000000000004 0.014017472258476439 0.23296621535479231 0.97238379921445994
0.14762 0.19342599999999999 0.0083009999999999994 -0.089290932599015493 0.1358463168464738 0.98669798193512359
0.15071799999999999 0.19342599999999999 0.0087889999999999999 0.085882139218531009 0.32495130012848367 0.94182318441842205
0.15381400000000001 0.19342599999999999 0.0081790000000000005 0.17111274664653234 0.48611441096777191 0.85697911723946685
0.156912 0.19342599999999999 0.0081790000000000005 0.14727865324903647 0.48065888392931511 0.86445129162780199
0.16 0.19341700000000001 0.0070800000000000004 0.056236882824264679 0.36211555138988755 0.93043524248160736
0.16309699999999999 0.19341700000000001 0.0072020000000000001 0.036579185592891153 0.42405698792008278 0.90489647705000342
0.16619400000000001 0.19341700000000001 0.0075680000000000001 0.081018278846084091 0.5172317224257319 0.8520019858012825
0.169291 0.19341700000000001 0.0064700000000000001 0.19952766094598831 0.53195720346210285 0.82292784993716284
0.17238000000000001 0.193409 0.0053709999999999999 0.18169437642353675 0.27008713864040973 0.94553693270918726
0.17547699999999999 0.193409 0.0050049999999999999 0.22280073718703977 -0.0022617606429648522 0.97486138294000835
0.17857500000000001 0.193409 0.0045170000000000002 0.25011178284549945 0.095193514398529841 0.96352596794186218
0.181671 0.19340099999999999 0.0028080000000000002 0.046261917126809535 0.096349857877362277 0.99427186418542712
0.18476899999999999 0.19340099999999999 0.0039060000000000002 0.01278789975510243 0.083011290819566055 0.99646655499134684
0.187865 0.19340099999999999 0.003418 0.14579967567853411 0.19523631837323116 0.96985835798847486
0.19096299999999999 0.19340099999999999 0.002686 0.10527209658654542 0.13285971187493575 0.98552832665569901
0.19405900000000001 0.19340099999999999 0.003418 0.12683238256663407 -0.010065882319469066 0.99187308903185889
0.197157 0.19339200000000001 0.002441 0.33233645090555008 0.18016706619337725 0.92579280168878719
0.20025299999999999 0.19339200000000001 0.00060999999999999997 0.42723295476181378 0.46000225862077326 0.77837646703203789
0.20336699999999999 0.19337699999999999 -0.0023189999999999999 0.29740573422706046 0.3408267334119412 0.89184469894741703
0.20646400000000001 0.19337699999999999 -0.0028080000000000002 0.1673728736141129 0.31386151645848992 0.93460005866923168
0.209561 0.19336700000000001 -0.003052 0.22235757290064107 0.55581865687165655 0.80101356445888217
0.212675 0.193359 -0.0056150000000000002 0.40496621648868586 0.59557205248487721 0.69375521172946131
0.21578 0.193352 -0.0070800000000000004 0.37870906900903406 0.47079635824410104 0.79682509380315247
0.21887699999999999 0.193352 -0.0074460000000000004 0.28167707682884019 0.30170318690071329 0.91084203427548993
0.22199099999999999 0.19333500000000001 -0.010864 0.39102168045007651 0.20136244380124607 0.89808418961942993
0.22509599999999999 0.19333500000000001 -0.010864 0.22290829361387615 0.43189791591819121 0.87394283729753908
0.22819300000000001 0.19333500000000001 -0.010742 0.0083259281162404442 0.38125489927215173 0.92443246411081037
0.23130600000000001 0.193327 -0.012451 0.40662183268125845 0.3308485684622875 0.85158552708074475
0.23441100000000001 0.193327 -0.013916 0.3986773494993554 0.39775554598059892 0.82634550681772601
0.23752499999999999 0.19331699999999999 -0.015747000000000001 0.4067340754267651 0.54471063235790418 0.73338783660692575
0.24063899999999999 0.19331000000000001 -0.016846 0.238891638972898 0.46006948917783924 0.85514142102723834
0.24373600000000001 0.19331000000000001 -0.017090000000000001 0.38907600847829232 0.41188869473650486 0.82399488030864487
0.24685799999999999 0.19329299999999999 -0.019775000000000001 0.47188016049957798 0.54941378026522025 0.68954594638905164
0.24997900000000001 0.19328500000000001 -0.021972999999999999 0.42552788956551019 0.58018243994576113 0.69448855395931919
0.25310899999999997 0.193268 -0.025391 0.49762724073875014 0.56112677485335982 0.66144075457852203
0.25622299999999998 0.193268 -0.026733 0.38880981611429344 0.57363491186734461 0.72095070204564826
0.25934499999999999 0.19325999999999999 -0.028076 0.2654748844916261 0.50896488213812952 0.81882710901281097
0.26245000000000002 0.19325999999999999 -0.028563999999999999 0.23550366399389633 0.38145567761213811 0.89388455085817131
0.26557199999999997 0.19325300000000001 -0.030151000000000001 0.54039605650657452 0.29800763648235135 0.7868694623063891
0.26871800000000001 0.19322800000000001 -0.034667999999999997 0.56680606791793642 -0.014380615705067689 0.82372573060658416
0.27182299999999998 0.19323499999999999 -0.034301999999999999 0.2586252664158788 0.085523854341354857 0.9621843076614347
0.27496100000000001 0.19322 -0.037353999999999998 0.66042733071980142 0.49238570545605226 0.56691450669467225
0.27811599999999997 0.19320300000000001 -0.041869999999999997 0.47018358787937836 0.34426342750206351 0.81265619186308191
0.281221 0.19319500000000001 -0.042113999999999999 0.46306359781027728 0.37360009106554198 0.80373818892648152
0.28437600000000002 0.19317799999999999 -0.046020999999999999 0.55904722724271572 0.34542831256266537 0.75375425610230606
0.28750599999999998 0.19317100000000001 -0.047974000000000003 0.52533219364484895 0.50086606692323976 0.68786573495496584
0.29064499999999999 0.193161 -0.050049000000000003 0.49581507958988702 0.45942824949785027 0.7369484991602977
0.29379899999999998 0.19314600000000001 -0.054198999999999997 0.59327306454206208 0.46525894269827012 0.65693316793122702
0.296929 0.193136 -0.055542000000000001 0.52048335744602703 0.38994476314785786 0.75963159249419876
0.30008400000000002 0.19312099999999999 -0.058838000000000001 0.68898503461753369 0.39428693469433668 0.60814261090834587
0.30324600000000002 0.193104 -0.062621999999999997 0.48613263959867858 0.58363049911816645 0.65042332154982041
0.306369 0.193104 -0.063231999999999997 0.48219519996214555 0.63436391524845082 0.60421040388603264
0.30954799999999999 0.193079 -0.068481 0.57023731491114771 0.3883417926465853 0.72389229638597552
0.31270300000000001 0.19307099999999999 -0.071044999999999997 0.72057854188760118 0.28321156717831608 0.63289633684161939
-0.120513 0.19106100000000001 0.16198699999999999 0.029860706217902745 0.72437121518211234 0.68876315293412571
-0.11745700000000001 0.19106100000000001 0.162354 0.13965213047957714 0.6907102810940331 0.70951856215571762
-0.11445 0.19106100000000001 0.16076699999999999 0.10117449140633258 0.7502561268995207 0.65336013525344527
-0.11139499999999999 0.19106100000000001 0.160889 -0.089285555035442707 0.65720279937235326 0.74840668767666374
-0.108331 0.19106100000000001 0.16125500000000001 -0.13702161997821033 0.38785578537309068 0.9114784503273623
-0.10525900000000001 0.19106100000000001 0.162354 0.039060951659372407 0.2387413356021513 0.97029728265638526
-0.102252 0.191053 0.16076699999999999 0.33671554501620643 0.31712917948489949 0.88659558157238372
-0.099246000000000001 0.19104399999999999 0.15881300000000001 0.21055594357849863 -0.043125558529415541 0.9766301146418197
-0.096198000000000006 0.19104399999999999 0.15881300000000001 0.072528482883014431 -0.31345121010652521 0.94683048010372117
-0.093133999999999995 0.191053 0.15917999999999999 0.039033774405677651 -0.42718404493920725 0.9033217346023642
-0.090078000000000005 0.191053 0.159302 0.077629935645046 -0.5789846639164834 0.81163437090925539
-0.087022000000000002 0.191053 0.159668 0.089624970053859554 -0.52429044150502757 0.8468098356120507
-0.083990999999999996 0.19104399999999999 0.15881300000000001 0.24624562772558548 -0.30069994622669549 0.92138082960592083
