0.178566 -0.125134 0.012085 0.41213003356812844 -0.76995922110457782 0.48714641871532327
0.18166399999999999 -0.12518299999999999 0.010619999999999999 0.098012763010652273 -0.89121685343054491 0.44286117288420801
0.184752 -0.12517500000000001 0.010864 0.14301318534073157 -0.85852568357384074 0.49242347574294942
0.18784899999999999 -0.12520800000000001 0.0098879999999999992 -0.019984288183035361 -0.82764523706198911 0.56089570313421133
0.190938 -0.12518299999999999 0.010742 -0.04757040768145597 -0.74712359358047209 0.66298068767379748
0.19403500000000001 -0.12517500000000001 0.010742 -0.1841987493867957 -0.60403297999439409 0.7753805387056294
0.19712399999999999 -0.12515100000000001 0.011719 -0.46528878114025751 -0.45108669335796064 0.76159513208816854
0.200212 -0.125059 0.014160000000000001 -0.42468307582270376 -0.43821698378850005 0.79221850535636762
0.203293 -0.125002 0.015869000000000001 -0.43450097618141847 -0.53161564426673014 0.72704450239876228
0.20638200000000001 -0.124945 0.017578 -0.36950457587016339 -0.52018643741935633 0.76998210286731272
0.20946200000000001 -0.124863 0.020142 -0.42115311053244081 -0.44832008804841339 0.78844096553966081
0.21255099999999999 -0.124821 0.021118000000000001 -0.41994985888753505 -0.41241166965887061 0.80842979333367093
0.21563099999999999 -0.12475600000000001 0.023192999999999998 -0.50066180190488585 -0.39541774820390918 0.77005361145747686
0.21871199999999999 -0.124664 0.025756999999999999 -0.43301731982536279 -0.25867914915586004 0.86347038080252625
0.22179299999999999 -0.124624 0.027099999999999999 -0.42215703374256508 -0.15417499069090329 0.89331601973049757
0.22487399999999999 -0.12457500000000001 0.028563999999999999 -0.44531668821437176 -0.15807588994223498 0.88130872015245276
0.22795399999999999 -0.124525 0.030029 -0.42007504258739042 -0.092786437175560232 0.90273342447893656
0.23103399999999999 -0.1245 0.030762000000000001 -0.37005662091402663 0.050430910135930686 0.92763938069734519
0.23411599999999999 -0.124434 0.032715000000000001 -0.46988792401522678 0.072295227444199001 0.87976061457276666
0.23718700000000001 -0.12438399999999999 0.034057999999999998 -0.45421811067352369 0.14059380214608586 0.87972682733578267
0.24026800000000001 -0.12432699999999999 0.035645000000000003 -0.3491862921440983 0.22479375874632945 0.90969044152797018
0.24334 -0.124294 0.036742999999999998 -0.46215374738932558 0.089416055266304195 0.88228038787826202
0.24641299999999999 -0.12420299999999999 0.039307000000000002 -0.48556141655087887 0.14941885472315158 0.86133856096794237
0.24948500000000001 -0.12417 0.040405000000000003 -0.28898847540007899 0.35171323461053844 0.89038388444857319
0.25256499999999998 -0.124153 0.040894 -0.33442430823591901 0.2410831370382413 0.9110649280357177
0.25564700000000001 -0.124121 0.041869999999999997 -0.43164856712916172 0.11336573841814304 0.8948897830728938
0.25871 -0.124031 0.044555999999999998 -0.58210073521072447 0.075581739180112836 0.80959627887586261
0.26177400000000001 -0.123964 0.046386999999999998 -0.49092345863535697 0.10747839505964681 0.86454759982137575
0.264847 -0.123915 0.047606999999999997 -0.25341054480968089 0.19260996251681919 0.94798971414173594
0.26792700000000003 -0.123915 0.047606999999999997 -0.3140034430789318 0.10166383206405641 0.94396308348612201
0.27100000000000002 -0.123865 0.049194000000000002 -0.30654952284297776 -0.045224565770645479 0.95077974773109231
0.27407199999999998 -0.12384000000000001 0.050049000000000003 -0.57522841880034981 -0.18565835810260256 0.79664499011234313
0.277111 -0.12370100000000001 0.054077 -0.52238321007887856 -0.25171514527424427 0.81471176956470459
0.28017500000000001 -0.123644 0.055786000000000002 -0.18266190460458617 -0.12054373698749499 0.97575808276401932
0.28325699999999998 -0.123644 0.055663999999999998 -0.02205343704812705 -0.23869770292372999 0.97084347478535338
0.28632800000000003 -0.123627 0.056273999999999998 0.017396108172341468 -0.3934077629109497 0.91919949276631907
0.28941699999999998 -0.123644 0.055663999999999998 0.14334096259052509 -0.36878090364125221 0.91839752479694925
0.29250599999999999 -0.123669 0.055053999999999999 0.26977360712145304 -0.29238080361550706 0.91746153411346365
0.295603 -0.123709 0.053711000000000002 0.38655888253955084 -0.11390485359473926 0.91520375581470104
0.29870799999999997 -0.123783 0.051636000000000001 0.44170794877542796 0.17306601001147698 0.88030803936310331
0.30180499999999999 -0.123825 0.050292999999999997 0.37648167510926223 0.3898107453687859 0.84042199584610799
0.30490200000000001 -0.123875 0.048828000000000003 0.45967209605190645 0.57398060298083764 0.67767826548665466
0.308008 -0.123932 0.047119000000000001 0.39104750540294353 0.5519268062069167 0.73651792178355535
0.31111299999999997 -0.12398099999999999 0.045654 0.49465750653917628 0.48162372669580167 0.72343108663375288
0.31423499999999999 -0.124081 0.042724999999999999 0.47979053871834854 0.43969851643874536 0.75925374783264876
0.38232899999999997 -0.129829 -0.12670899999999999 -0.42009405818665668 -0.59426149567872744 0.68583836071624615
0.38542599999999999 -0.12976299999999999 -0.12475600000000001 -0.1597198550555308 -0.28448761081293028 0.94528110485452466
0.388548 -0.129747 -0.12414600000000001 -0.18889774621859537 -0.13644040110786884 0.97247193194408388
0.39168500000000001 -0.12975500000000001 -0.124512 0.0076453823013292481 -0.21338936364555988 0.97693732020657775
0.39481500000000003 -0.129747 -0.12439 -0.33837603198557348 -0.43447936996706232 0.83470314366888709
0.39789600000000003 -0.12967300000000001 -0.12207 -0.3208980016472614 -0.21243042276492133 0.92298309194844474
0.40100200000000003 -0.12962299999999999 -0.12085 -0.21759382473111025 0.054541915818203349 0.97451429279296198
0.40414 -0.129639 -0.121216 -0.19087675706489188 -0.1068050802202264 0.97578621554700251
0.40723700000000002 -0.12959100000000001 -0.11987299999999999 -0.4281943590768077 -0.26331984321300655 0.86447223843515042
0.41032600000000002 -0.129524 -0.11792 -0.3961214889822785 -0.004416560359555571 0.91818748627992797
0.41343099999999999 -0.129492 -0.11694300000000001 -0.37682775749773728 -0.041954375321154612 0.92533273559873486
0.41652 -0.12943499999999999 -0.115234 -0.42183159296892342 -0.11829012695926722 0.89892466482862776
0.41962500000000003 -0.129385 -0.11389199999999999 -0.36364933096645347 -0.036437123313611895 0.93082302299216868
0.42272999999999999 -0.12936 -0.113159 -0.41335282628774844 0.01253396356709899 0.91048467354328877
0.425811 -0.12928600000000001 -0.11096200000000001 -0.34466891310045245 0.1284223556384558 0.92989840246901312
0.428925 -0.129269 -0.110596 -0.28871582935878914 0.21133854408031763 0.93379825961696783
0.43201400000000001 -0.12921099999999999 -0.108887 -0.37229689171795372 0.23085913991552401 0.89894331408304862
0.43511899999999998 -0.12917899999999999 -0.10791000000000001 -0.21236301135165031 0.26354490274085463 0.94098142152168585
0.438224 -0.12915399999999999 -0.107178 -0.23947735070104595 0.27543511761397782 0.93101347707011339
0.44133800000000001 -0.129137 -0.106812 -0.073207171887778144 0.54065471599132575 0.83805321314373116
0.44444299999999998 -0.129112 -0.105957 -0.17904503621318363 0.55308867553620367 0.81365581912810514
0.44756400000000002 -0.129105 -0.105713 -0.20918455244764092 0.50644030090489689 0.8365166134851344
0.45066200000000001 -0.12906300000000001 -0.104492 -0.3865829362921499 0.40507841932403016 0.82853189894275336
0.45374199999999998 -0.128998 -0.102661 -0.25819313376416531 0.47952314872733021 0.83868579069378946
0.45688099999999998 -0.12901299999999999 -0.103149 -0.091641093722615641 0.48183377393760635 0.871457471271184
0.45997700000000002 -0.12898100000000001 -0.102173 -0.29500817847926342 0.3520718409618685 0.88826549715277581
0.46304099999999998 -0.12890599999999999 -0.10022 -0.2813306447979087 0.39619212765544187 0.87400507222867241
0.466171 -0.12890599999999999 -0.10022 0.16690627186568169 0.61998479887571045 0.7666558195011266
0.469335 -0.12895599999999999 -0.101685 0.13236125775818897 0.61704984031793497 0.77571257048489362
0.472472 -0.12898100000000001 -0.102295 0.022948597077467894 0.42899567161389623 0.90301499191802914
0.47560200000000002 -0.12898100000000001 -0.102295 -0.01044422305609536 0.36082286589079965 0.93257588305462014
0.47871599999999997 -0.12896299999999999 -0.10192900000000001 0.12120689781241194 0.52681304382756922 0.84129477876415182
0.48186200000000001 -0.12898799999999999 -0.102661 0.20022768448703318 0.47959350411052382 0.85434123462463762
0.48500100000000002 -0.12900500000000001 -0.103271 0.35663156255195655 0.36868779818446074 0.85841903290971144
0.48818899999999998 -0.12906999999999999 -0.105347 0.34203259551779946 0.46635423602028014 0.81579864559172821
0.49135099999999998 -0.12912000000000001 -0.106567 0.5209007908945088 0.45792618870529217 0.7203929287155173
0.494531 -0.12916900000000001 -0.108276 0.46681763618799826 0.19271938712050998 0.86309937572202244
-0.146929 -0.13277800000000001 -0.12207 -0.50529881464207838 0.53543069328003812 0.67674742749046946
-0.14372399999999999 -0.132687 -0.11938500000000001 -0.58838461021052102 0.35900868709284173 0.72451108553236609
-0.14052000000000001 -0.13259699999999999 -0.11682099999999999 -0.57364308704160405 0.16860823529900559 0.80156401595801074
-0.13734099999999999 -0.13253999999999999 -0.11498999999999999 -0.47080650350735426 0.095510114649667674 0.87705134071774093
-0.13415299999999999 -0.132465 -0.112915 -0.43803478197326673 0.17240870516718262 0.88227023533847515
-0.13101499999999999 -0.13244800000000001 -0.112427 -0.2523906715318629 0.41360854464308172 0.87477249655091882
-0.12787699999999999 -0.132441 -0.111938 -0.27410226809146798 0.44005354360771287 0.85511451010107875
-0.124681 -0.13234899999999999 -0.109375 -0.48739139767884399 0.20708304817373308 0.84827250139783394
-0.12151000000000001 -0.132299 -0.10791000000000001 -0.25106523680973719 0.23847914108996485 0.93813322408422528
-0.11838799999999999 -0.13230900000000001 -0.108154 -0.21318644877333404 0.28971359965730542 0.93306889790251879
-0.11522499999999999 -0.13225899999999999 -0.10668900000000001 -0.23899063505489226 0.26209419066464257 0.9349813429025764
-0.11208700000000001 -0.132242 -0.10607900000000001 -0.26099708854691994 0.10327430673665282 0.9597994255770812
-0.108908 -0.13216800000000001 -0.103882 -0.18170536174758761 0.01999746008512988 0.98314966465046505
-0.105794 -0.132185 -0.104492 0.039056226885267317 0.19315319124702091 0.98039097091547023
-0.10267999999999999 -0.13220999999999999 -0.105103 -0.10019386767730114 0.058620842728180439 0.99323954093546907
-0.099525000000000002 -0.13216 -0.10376000000000001 0.040612123448849999 0.0646732083217368 0.99707975185255293
-0.096436999999999995 -0.132217 -0.105347 0.12850552216669406 0.12632758628377563 0.98362984486867844
-0.093282000000000004 -0.13217699999999999 -0.10424799999999999 0.080706906084411334 0.034631097870834147 0.9961360762318282
-0.090209999999999999 -0.13225899999999999 -0.106567 0.17989300685425735 0.024455577206712931 0.98338213875808256
-0.087080000000000005 -0.13225000000000001 -0.106201 0.1406846436656238 0.033717487296258369 0.98948014739412682
-0.083965999999999999 -0.132275 -0.106934 0.21890965185697603 0.0059008494872580097 0.97572728992233604
-0.080861000000000002 -0.132299 -0.107544 0.0791247027313631 -0.18396039897031588 0.97974376906840055
-0.077723 -0.13228400000000001 -0.107178 0.076714929485434388 -0.16274827202233713 0.98368075082711082
-0.074625999999999998 -0.13233400000000001 -0.10852100000000001 0.16227883430223874 -0.10782557015488342 0.98083598341327227
-0.071496000000000004 -0.13233400000000001 -0.10839799999999999 0.16167082712028633 -0.12235478549513373 0.97923023346130522
-0.068374000000000004 -0.13234099999999999 -0.108765 0.093131675435695269 -0.13559449399843687 0.98637752621795283
-0.065268999999999994 -0.13236600000000001 -0.109497 0.33275964289457222 -0.14195795350484083 0.93226549839484796
-0.062179999999999999 -0.132441 -0.11144999999999999 0.53419941393915993 -0.24976047730256135 0.80762038738794528
-0.059098999999999999 -0.13251499999999999 -0.11377 0.55503095033587047 -0.37479362124693372 0.74261052082627432
-0.056027 -0.13261200000000001 -0.116577 0.49562522800885039 -0.44371914646605326 0.74663843486697923
-0.052929999999999998 -0.132662 -0.11804199999999999 0.49405658761338866 -0.46484228176227416 0.73473106734495497
-0.049833000000000002 -0.132711 -0.119507 0.45001287138337887 -0.36835926063807301 0.81351083010090208
-0.046744000000000001 -0.132803 -0.121948 0.61844239971139503 -0.047355235893638388 0.78440198869754851
-0.034125000000000003 -0.12689600000000001 0.050171 -0.65352402200318183 -0.50805358223633001 0.56105963162717154
-0.030979 -0.12676399999999999 0.053955000000000003 -0.68726204400834678 -0.55973200386929445 0.46300212387194645
-0.027775000000000001 -0.12654299999999999 0.060546999999999997 -0.55488605324004614 -0.55919712603574967 0.61595457799503561
-0.024645 -0.12645100000000001 0.063353999999999994 -0.55257729962852697 -0.39483258647111624 0.73400650991375649
-0.02154 -0.126387 0.065308000000000005 -0.56079053447830995 -0.47385160391688536 0.67895407348724746
-0.018409999999999999 -0.12628 0.068359000000000003 -0.55336891891591522 -0.49803495151800115 0.66764064184581629
-0.01528 -0.12618099999999999 0.071289000000000005 -0.58091105596794279 -0.45948536201538875 0.67187465136571201
-0.012156999999999999 -0.126081 0.074096999999999996 -0.45770648387763407 -0.38335335825329181 0.80221255121837654
-0.0090679999999999997 -0.12604899999999999 0.075073000000000001 -0.25742441929435228 -0.28945546158708979 0.92192635503513531
-0.0059719999999999999 -0.12601499999999999 0.076172000000000004 -0.44842050237933684 -0.34366853513817602 0.82511271411961862
-0.0028670000000000002 -0.12594 0.078125 -0.36745879499715101 -0.26206593478055751 0.89235389829755007
0.000214 -0.12593299999999999 0.078368999999999994 -0.28731122834544254 -0.19732330139128976 0.93729172235471869
0.00332 -0.12585099999999999 0.080933000000000005 -0.33956695971548206 -0.2432865979840354 0.90857355844804255
0.0064000000000000003 -0.12584300000000001 0.081176999999999999 -0.030825832725706718 -0.116601306379933 0.99270030894890915
0.0094640000000000002 -0.125858 0.080565999999999999 -0.15226229477032469 -0.16747891875881823 0.97404671621162608
0.012553 -0.12581800000000001 0.081908999999999996 -0.09197483936937989 -0.2971132700190392 0.9504021957579698
0.015617000000000001 -0.12585099999999999 0.081055000000000002 0.11580969958324612 -0.33028922703599528 0.93674817319619208
0.018697999999999999 -0.12581800000000001 0.081908999999999996 0.16782708072967825 -0.18616416399126567 0.96807901279760589
0.021753000000000002 -0.12587499999999999 0.080199999999999994 0.34877261585443908 0.013745931504177893 0.93710656373602153
0.024809000000000001 -0.12590799999999999 0.079224000000000003 0.15716840258333159 -0.16432823874962926 0.97380404762911554
0.027872999999999998 -0.12593299999999999 0.078613000000000002 0.27628833531973329 -0.22694978601933249 0.93389429294328052
0.030936999999999999 -0.125975 0.077393000000000003 0.41034359446483076 -0.15884119342122269 0.89799087398158128
0.033994000000000003 -0.126024 0.076172000000000004 0.32620652667194316 -0.15694242176936257 0.93217937018891073
0.037048999999999999 -0.126057 0.074951000000000004 0.16289543653524335 -0.1816963150816496 0.96976880020020362
0.040120999999999997 -0.12607399999999999 0.074584999999999999 0.36818784075562333 0.096782070812642604 0.92470046214378432
0.043185000000000001 -0.126106 0.073608000000000007 0.33002011413174753 -0.0050569936682704356 0.94396035461427485
0.046248999999999998 -0.12615599999999999 0.072265999999999997 0.39162112627103585 -0.085893452333402717 0.91610873170407814
0.049306000000000003 -0.126196 0.071044999999999997 0.4230130756387438 -0.040933414413983869 0.90519853812468321
0.05237 -0.126245 0.069580000000000003 0.51946242563552536 -0.048516714591510295 0.85311483210532824
0.055417000000000001 -0.126337 0.067016999999999993 0.63023385651544572 -0.03104671517994027 0.77578436925359884
0.058465000000000003 -0.12643599999999999 0.064209000000000002 0.6055507908320128 -0.040866471944806186 0.79475667420507268
0.061520999999999999 -0.12650900000000001 0.062011999999999998 0.56831877933343267 0.06716339569955404 0.82006270695298789
0.064585000000000004 -0.12657499999999999 0.060180999999999998 0.4633143316803191 -0.13092050780950784 0.87646999417807792
0.067649000000000001 -0.126633 0.058472000000000003 0.44816441289716824 -0.22787752420343782 0.86441916509032124
0.070712999999999998 -0.12668199999999999 0.056884999999999998 0.65692409770355831 -0.025046876508156901 0.7535405654863917
0.073760999999999993 -0.12681400000000001 0.052978999999999998 0.59022242385186729 -0.063598409035364026 0.80473146623615843
0.076825000000000004 -0.12687100000000001 0.051392 0.48658433918458233 -0.095860732607120788 0.86835845179529936
0.079896999999999996 -0.12692999999999999 0.049805000000000002 0.54764397195204251 -0.075544843218983027 0.83329409973166735
0.082960999999999993 -0.12701999999999999 0.047119000000000001 0.57839619612924198 -0.064919696455641968 0.81316866228066775
0.086025000000000004 -0.127077 0.045532000000000003 0.56714618635763558 -0.093349156485597606 0.81830992801225222
0.089097999999999997 -0.12714400000000001 0.043579 0.60107885027299646 -0.043513126750003572 0.79800427539890462
0.092161999999999994 -0.12724299999999999 0.040771000000000002 0.61109769839832917 -0.11395893723226731 0.78330898350341738
0.095226000000000005 -0.12734200000000001 0.037719999999999997 0.42388419685595624 -0.093956810395889184 0.90082978716071094
0.098313999999999999 -0.12734999999999999 0.037719999999999997 0.50135583705189279 -0.0012304224316950763 0.86524031963069969
0.101378 -0.12745699999999999 0.034424000000000003 0.51746187061695292 -0.25754738498329949 0.81602852704171325
0.104451 -0.12754799999999999 0.031859999999999999 0.52073453585888252 -0.15938502275421146 0.83870850579058387
0.10754 -0.12753900000000001 0.032104000000000001 0.16271903818096894 -0.54665187562160367 0.82139773647901126
0.110612 -0.12762999999999999 0.029297 0.20700619563985848 -0.76947223750068561 0.60420270661624897
0.113701 -0.12762999999999999 0.029419000000000001 -0.025185586058079027 -0.82112915897194994 0.57018645243545485
0.11679 -0.12759799999999999 0.030273000000000001 -0.075479991436638041 -0.74461506019601775 0.66321277356667807
0.119879 -0.12759799999999999 0.030395999999999999 -0.12572035242602697 -0.7158543567497051 0.68683836010253629
0.12296799999999999 -0.12757299999999999 0.031127999999999999 -0.20006658017992213 -0.57564926803679695 0.79284379527357773
0.126057 -0.12756300000000001 0.031371999999999997 0.1248243779142329 -0.60535642263581879 0.78610589379032669
0.12914500000000001 -0.127581 0.031005999999999999 0.0077204822121374776 -0.87070108026840209 0.49175199336032144
0.132242 -0.12748899999999999 0.033690999999999999 -0.19634140607647788 -0.80172310508732592 0.56452645201890062
0.13838700000000001 -0.12781899999999999 0.024048 0.1190974528359498 -0.94239045460356385 0.31259562984801453
0.14147599999999999 -0.127861 0.022704999999999999 0.25662727774139621 -0.90480975466955504 0.33979662766699109
0.14455599999999999 -0.12801699999999999 0.018065999999999999 0.39448502846388134 -0.82908297016816879 0.39623602927419171
0.147645 -0.128082 0.016357 0.12501958268891125 -0.87419915232961731 0.46919712915838369
0.15073400000000001 -0.12809899999999999 0.015747000000000001 0.095582426791622557 -0.87023909481720396 0.48326795625238539
0.15382299999999999 -0.12809200000000001 0.015990999999999998 0.20191404226931386 -0.82826422655784981 0.52269406973773169
0.156919 -0.12815699999999999 0.014160000000000001 0.20215108510269936 -0.76583993548268192 0.6104294652223814
0.16000800000000001 -0.128189 0.013062000000000001 0.19459358982206887 -0.74918467717023329 0.63313162477757634
0.16309699999999999 -0.12823899999999999 0.011841000000000001 0.027814149478025303 -0.8106127183769084 0.58492169894304058
0.16619400000000001 -0.12821399999999999 0.012451 0.28702562573346463 -0.75724482683288918 0.58668267607552638
0.16928299999999999 -0.128305 0.0097660000000000004 0.11946889566503638 -0.83004815200970361 0.54474512234057948
0.17238000000000001 -0.12823899999999999 0.011597 0.33931705316579863 -0.76126303017798491 0.55257808164558153
0.17547699999999999 -0.12842899999999999 0.0061040000000000001 0.33271670218588423 -0.81987823055068298 0.46593914104272333
0.17857500000000001 -0.12842000000000001 0.0063480000000000003 0.15985135932997696 -0.88111380379897009 0.4450685426709784
0.181671 -0.128469 0.0050049999999999999 0.19345733712146029 -0.81028537702885717 0.55318339317723253
0.18476899999999999 -0.12851899999999999 0.0036619999999999999 0.0493290174904003 -0.81221757444004061 0.58126522328810337
0.187858 -0.12850400000000001 0.0039060000000000002 -0.15857140591708321 -0.79816878558884252 0.58118989920430653
0.19095400000000001 -0.128445 0.0057369999999999999 -0.37489802423953489 -0.66535993109264235 0.64555993797453637
0.19404299999999999 -0.12839500000000001 0.0070800000000000004 -0.38425464269527343 -0.50639464843913662 0.77195390380470974
0.19712399999999999 -0.12828100000000001 0.010498 -0.57787560197395205 -0.46961809229161067 0.66747182415112527
0.200212 -0.12817400000000001 0.013672 -0.44821500337594916 -0.36923908189324794 0.81410429992190136
0.20330100000000001 -0.12815699999999999 0.014160000000000001 -0.42877636652168583 -0.31746132155757695 0.84579497328098241
0.20638999999999999 -0.128082 0.016234999999999999 -0.49196315741916763 -0.12196443163270793 0.86203070082142308
0.209478 -0.12805 0.017090000000000001 -0.46246947143226974 -0.022794328492621283 0.88634214983928605
0.21256 -0.12797500000000001 0.019408999999999999 -0.45249790937204759 -0.16266259326366272 0.87680472328031311
0.21564 -0.127911 0.021361999999999999 -0.46697399191985367 -0.30346673294132498 0.83056801820703108
0.21872 -0.12784400000000001 0.023314999999999999 -0.45010583599403686 -0.40723165640381798 0.79471196947492362
0.221801 -0.12779399999999999 0.024535999999999999 -0.42148827180606513 -0.39612774948253071 0.81573920024713897
0.224882 -0.12772900000000001 0.026610999999999999 -0.41600012917583451 -0.40514693218376346 0.81412520896221729
0.227962 -0.12767000000000001 0.028198000000000001 -0.5319064489587666 -0.39158011529964709 0.75082657308994483
0.23103399999999999 -0.12757299999999999 0.031127999999999999 -0.44959376040446958 -0.22174060832172982 0.865272531186838
0.23411599999999999 -0.127523 0.032592999999999997 -0.52866459282916789 -0.13471231096365138 0.83807299298068472
0.23718700000000001 -0.12745699999999999 0.034424000000000003 -0.49681084768324646 0.0018608605250780578 0.8678568538776199
0.24026 -0.12739200000000001 0.036498999999999997 -0.37347043444932232 -0.0017197181626980391 0.92764048917760988
0.24334 -0.127357 0.037231 -0.345246391383775 0.054552610988602104 0.93692525949021543
0.246421 -0.12732499999999999 0.038207999999999999 -0.45482613759345791 -0.042205848192032172 0.8895795922458023
0.24948500000000001 -0.12724299999999999 0.040771000000000002 -0.49413487963122671 -0.12294948199191011 0.8606475153102775
0.252558 -0.127193 0.041992000000000002 -0.39952811588401355 0.15933384271483778 0.90276797195286762
0.25563000000000002 -0.12714400000000001 0.043457000000000003 -0.40043050963420196 0.38796692440929359 0.83014280248550409
0.25870199999999999 -0.12710199999999999 0.044555999999999998 -0.47579039435508713 0.34768162065823988 0.80792387716658698
0.261766 -0.12701999999999999 0.046996999999999997 -0.49587000308325341 0.16652698131590785 0.85228029693054941
0.26483800000000002 -0.12696299999999999 0.048705999999999999 -0.40074694847996845 0.11329705981577012 0.90915656491117924
0.26790199999999997 -0.126913 0.050171 -0.34843758672400543 0.26629837693553182 0.89870819657965328
0.27097500000000002 -0.126888 0.051025000000000001 -0.24393373318162281 0.3925224671152166 0.88680462708866181
0.27405499999999999 -0.126856 0.051757999999999998 -0.39727682958008886 0.29802398268294816 0.86795900042835361
0.277111 -0.126781 0.053955000000000003 -0.4478072993776856 0.014709093344364628 0.89400909682007734
0.28018399999999999 -0.126749 0.055053999999999999 -0.26306357686498855 -0.20460917100007173 0.94283224471252658
0.28326400000000002 -0.12673999999999999 0.055176000000000003 0.2304394098011226 -0.13310660067548954 0.96393999360288296
0.28635300000000002 -0.12678900000000001 0.053711000000000002 0.15194567738490547 -0.31719752560956516 0.93610802841937601
0.28944199999999998 -0.126806 0.053344999999999997 0.074660778238762215 -0.311499276291621 0.94730880343348378
0.292522 -0.12681400000000001 0.053101000000000002 0.07545846988994924 -0.16925673672468536 0.98267908108149837
0.29561100000000001 -0.126831 0.052490000000000002 0.14403887382649558 0.01673363317940664 0.98943053740392095
0.29869200000000001 -0.126831 0.052611999999999999 0.18542732677998228 0.16382838189229468 0.96890503547550111
0.30178100000000002 -0.12683900000000001 0.052246000000000001 0.2457936969924058 0.18859650396533451 0.95079798969647544
0.30486099999999999 -0.12684799999999999 0.051880000000000003 0.39399567727428264 0.18475882637753085 0.90035081072034173
0.30798300000000001 -0.126945 0.049194000000000002 0.49750785363051064 0.3685980728827894 0.78525244109334447
0.31109599999999998 -0.127029 0.046630999999999999 0.58289544855868236 0.31841037299973135 0.74756118840917918
0.31420999999999999 -0.12710199999999999 0.044555999999999998 0.58790806128925288 0.21007705152086117 0.78117331232922538
0.385459 -0.13295899999999999 -0.12646499999999999 -0.33141747483597034 -0.14231003504604761 0.93268982587918359
0.38857199999999997 -0.13292699999999999 -0.12573200000000001 -0.23955237368418361 -0.057317285014696184 0.96919006861441648
0.39167800000000003 -0.132877 -0.124268 -0.034677134639612986 -0.032675400361846345 0.9988642623221532
0.39482400000000001 -0.13289300000000001 -0.124878 -0.19348884740265668 -0.017329282118504756 0.98094941863077156
0.39791300000000002 -0.13283500000000001 -0.123047 -0.41820175196973836 -0.19867550257497574 0.88636072754044237
0.40100999999999998 -0.13277800000000001 -0.12146 -0.42300248981341831 -0.28116767399023673 0.86140213182611114
0.404115 -0.13272900000000001 -0.120117 -0.22330575437538422 0.11677820096127899 0.96772795342652351
0.40724500000000002 -0.13273599999999999 -0.120239 -0.43419122494780577 0.27303209357654101 0.8584471189628019
0.41030899999999998 -0.13262199999999999 -0.117065 -0.49682874205061167 0.29689039070019141 0.81548592690634114
0.413406 -0.13258 -0.115845 -0.31720381397867736 0.40881640823919335 0.85571659137344414
0.41652 -0.13255500000000001 -0.11511200000000001 -0.36492888598312495 0.42388104846794949 0.82894617733893139
0.41961700000000002 -0.13250500000000001 -0.113647 -0.38187496485273775 0.37208267756891694 0.84600590557741717
0.42269699999999999 -0.132441 -0.111816 -0.44447772814671249 0.37759515793800819 0.81231856182368989
0.425786 -0.132383 -0.110107 -0.38807400305332834 0.41731639956450844 0.82173328447172012
0.42888399999999999 -0.13234099999999999 -0.108887 -0.29315414363691594 0.44403559764847883 0.84669536203375106
0.43198900000000001 -0.132299 -0.10778799999999999 -0.29040508657051695 0.36913347871468083 0.8828393741706182
0.43507800000000002 -0.13225899999999999 -0.106445 -0.27627192811623064 0.32327956650947726 0.90507687165918937
0.43820799999999999 -0.13225899999999999 -0.10668900000000001 -0.25172974951743726 0.41481741292771118 0.87439044318876735
0.44127899999999998 -0.132185 -0.104492 -0.29213356273512975 0.44611162636708557 0.84595649908478976
0.44440200000000002 -0.13217699999999999 -0.10424799999999999 -0.13154516563525989 0.51664761583170771 0.84603257056298031
0.44750699999999999 -0.13215299999999999 -0.103516 -0.14648516324763425 0.45413494006489219 0.87880802975426364
0.45062000000000002 -0.132128 -0.102905 -0.30414999894038419 0.36780905513577805 0.87875438952228879
0.45370899999999997 -0.13208600000000001 -0.101562 -0.32642849006525237 0.20688142356375841 0.92230391816252855
0.45679799999999998 -0.13203599999999999 -0.10022 -0.085786452599642821 0.14361810031804598 0.98590797025452892
0.459928 -0.13204399999999999 -0.100464 -0.12523546880406208 0.16706209076751619 0.97796029325418576
0.46304099999999998 -0.13202900000000001 -0.10009800000000001 -0.29006589512677294 0.0079368436112241432 0.95697376296207559
0.46612999999999999 -0.13198699999999999 -0.098877000000000007 -0.12643533836496199 0.053349876668554369 0.99053919451578876
0.46926800000000002 -0.131996 -0.099242999999999998 0.096877924419460457 0.33907476551565757 0.93575796611660178
0.47239900000000001 -0.13200400000000001 -0.099487000000000006 0.11699717471289511 0.48742641915747575 0.86529020970800374
0.47553600000000001 -0.132021 -0.10009800000000001 0.098149701128838668 0.44181581298957534 0.89172048510768231
0.478659 -0.132021 -0.099975999999999995 0.058951876908018563 0.29571352559127384 0.95345591769698557
0.481796 -0.13203599999999999 -0.10058599999999999 0.36469667333491451 0.31107447283008094 0.8776269189193856
0.48498400000000003 -0.13211100000000001 -0.102783 0.44468858680842682 0.19067840254020013 0.87515359084393951
0.48815500000000001 -0.13216 -0.10424799999999999 0.29088354734242988 0.081562019223643742 0.95327561539443895
0.49127700000000002 -0.13216 -0.104126 0.47290454763395084 0.17772158552660849 0.86300424498668415
0.49458800000000003 -0.13237399999999999 -0.11035200000000001 0.77811556839218998 -0.12316995322042117 0.61592639564267626
-0.14686299999999999 -0.135826 -0.119751 -0.58162059680580436 0.18370506794024913 0.79244553717232113
-0.14368300000000001 -0.135767 -0.11804199999999999 -0.40096334132872435 0.33945914691804085 0.85087947823659549
-0.14052899999999999 -0.13573499999999999 -0.117065 -0.47052455090007411 0.16923751344654334 0.86600537587402682
-0.13734099999999999 -0.13566 -0.11498999999999999 -0.43932558413121281 0.17482186590704415 0.88115285071805116
-0.13420299999999999 -0.135653 -0.11450200000000001 -0.48442878077772594 0.15920771406286527 0.86022186680941959
-0.13097400000000001 -0.13552900000000001 -0.11096200000000001 -0.46660400660784618 0.1043526803304239 0.87828880166227874
-0.12778700000000001 -0.13545399999999999 -0.108887 -0.32308012844153439 0.19426950000934276 0.92621735676477235
-0.124657 -0.13544700000000001 -0.108643 -0.24058893147168398 0.18324141810162825 0.95317340958789742
-0.12151000000000001 -0.13542899999999999 -0.108032 -0.32068607709002572 0.013739528199714669 0.94708588064940513
-0.118355 -0.13538 -0.10668900000000001 -0.25027131958227189 0.05007318153389681 0.96688000449157163
-0.115192 -0.13533999999999999 -0.10546899999999999 -0.2706451703553025 0.091785404112232336 0.95829360394156005
-0.11207 -0.135347 -0.10546899999999999 -0.010537462975221097 0.26308311694966668 0.96471562413495393
-0.10896500000000001 -0.13537199999999999 -0.106201 -0.088387920922980534 0.15309296116702223 0.98425104555495679
-0.105819 -0.135347 -0.105713 -0.14574806164279203 0.035406129260844091 0.98868797329497915
-0.102673 -0.13531499999999999 -0.104614 0.0097463098635771402 0.17836544420394426 0.98391604202694694
-0.099558999999999995 -0.13533200000000001 -0.105103 -0.062603782778573036 0.083828719787354039 0.99451169531616201
-0.096420000000000006 -0.135323 -0.10485800000000001 0.17945282488473088 0.22648208435267572 0.95734139632012016
-0.093324000000000004 -0.13536500000000001 -0.105957 0.10829438623025478 0.11773571269430337 0.98712239761205733
-0.090193999999999996 -0.13536500000000001 -0.105835 0.20714360491451703 0.046328317995392033 0.97721298287258562
-0.087080000000000005 -0.13537199999999999 -0.10607900000000001 0.058668684869253925 0.00065850951237017097 0.99827729202909055
-0.083965999999999999 -0.13539699999999999 -0.10668900000000001 0.25975419890858231 0.13399116601178543 0.95633368840596789
-0.080869999999999997 -0.13544700000000001 -0.108276 0.24013306982680374 0.20406672112651153 0.94904840872540841
-0.077756000000000006 -0.135464 -0.108765 0.040366006451788866 0.056674910906924739 0.99757633291734937
-0.074625999999999998 -0.13545399999999999 -0.10839799999999999 0.10520889265313559 0.061162629116570902 0.99256748974880793
-0.071503999999999998 -0.13547100000000001 -0.108765 0.22078429533810817 0.092064004002792701 0.97096782341075993
-0.068406999999999996 -0.135521 -0.11022899999999999 0.18046823685237881 -0.072754738343072292 0.9808863152965408
-0.065268999999999994 -0.13550400000000001 -0.10974100000000001 0.29036557133427926 -0.20284436074797627 0.93516950351070705
-0.062188 -0.135571 -0.111694 0.55060369469175852 -0.13761721468556104 0.82334505136909208
-0.059115000000000001 -0.13566 -0.11438 0.63806165148109728 -0.015891516557313076 0.76982127056267013
-0.056043999999999997 -0.13575899999999999 -0.117188 0.64596465096899836 -0.079758265312661239 0.75918923122816717
-0.052946 -0.135826 -0.119019 0.5888927271953841 -0.21250086736403639 0.77977479904515701
-0.049898999999999999 -0.135965 -0.123047 0.36399257442317845 -0.31844853829334441 0.87527134891050751
-0.046752000000000002 -0.13594100000000001 -0.122192 0.074791805907054434 -0.22917196247729488 0.97050831906968582
-0.031004 -0.129911 0.052246000000000001 -0.7162436770310554 -0.44424655018516573 0.53818212322745562
-0.027857 -0.12978000000000001 0.056152000000000001 -0.74629077622053042 -0.42578506972427055 0.51162207900759726
-0.024694000000000001 -0.12962299999999999 0.060546999999999997 -0.58510119198380572 -0.46251392551167003 0.66613622018841978
-0.021572000000000001 -0.12953200000000001 0.063231999999999997 -0.58868784574224298 -0.40637891309052843 0.69878666220150343
-0.018450999999999999 -0.12945000000000001 0.065551999999999999 -0.56177740603190751 -0.32110868134780368 0.76242728232608259
-0.015328 -0.12935099999999999 0.068481 -0.58216675076686986 -0.44389083127591944 0.68120687328499452
-0.012207000000000001 -0.129269 0.070801000000000003 -0.51933476953915114 -0.4617833808072907 0.7190601548951977
-0.0090930000000000004 -0.129187 0.073242000000000002 -0.30065432570509409 -0.47878934387500327 0.82484407049245312
-0.0060130000000000001 -0.12916900000000001 0.073608000000000007 -0.30274591791534872 -0.48941899116272147 0.8178104672079326
-0.0028990000000000001 -0.12908700000000001 0.076172000000000004 -0.48879662596923101 -0.52683548811603587 0.69535762518479216
0.00020599999999999999 -0.12901299999999999 0.078246999999999997 -0.27573736085817868 -0.40218539358400368 0.87304972196012232
0.0032950000000000002 -0.128998 0.078856999999999997 -0.22077086253246739 -0.49329316255038091 0.84138105638153871
0.0063749999999999996 -0.128973 0.079467999999999997 -0.14541401350663138 -0.58793624964965641 0.79572968464409444
0.0094640000000000002 -0.128939 0.080444000000000002 -0.14911580381682044 -0.48691192009393275 0.86062840943260943
0.012545000000000001 -0.128914 0.081176999999999999 -0.15878368190382772 -0.40457992967352074 0.90061247096985786
0.015617000000000001 -0.12893099999999999 0.080810999999999994 0.22399859841937003 -0.23941333462843989 0.94472529505049696
0.018672999999999999 -0.12896299999999999 0.079712000000000005 0.11230425251487221 -0.39878452173373258 0.91014210983377442
0.021745 -0.12895599999999999 0.079955999999999999 0.1979844539393287 -0.41675806378716873 0.8871949460331231
0.024809000000000001 -0.12898799999999999 0.078978999999999994 0.16779454430375726 -0.30984106679399592 0.93586511006119533
0.027882000000000001 -0.12900500000000001 0.078734999999999999 0.25392303427428697 -0.22619969914799137 0.94040246106137848
0.030936999999999999 -0.129055 0.077271000000000006 0.3781033205466463 -0.17516497607348158 0.909040763744276
0.033994000000000003 -0.129105 0.075927999999999995 0.3410905395380906 -0.17458965949506486 0.9236751023141262
0.037057 -0.12912899999999999 0.075073000000000001 0.13559845123127126 -0.21630658957545462 0.96686323713848821
0.040129999999999999 -0.12912000000000001 0.075439000000000006 0.20024975235995821 -0.13452031344860019 0.9704660333826558
0.043185000000000001 -0.129187 0.073608000000000007 0.44149428913974309 0.012390719719354893 0.89717850103634855
0.046233000000000003 -0.12926099999999999 0.071289000000000005 0.46930719684200667 0.0023920356077851805 0.88303172828497456
0.049306000000000003 -0.12929299999999999 0.070434999999999998 0.38476398516426624 -0.090331410306876928 0.91858418886484372
0.052352999999999997 -0.12936800000000001 0.068359000000000003 0.48598240625472255 0.020071301672886073 0.87373808641950923
0.055417000000000001 -0.12942500000000001 0.066650000000000001 0.59380879984947843 0.10099858077000874 0.79824206598234726
0.058465000000000003 -0.12951699999999999 0.064087000000000005 0.5702056191692676 0.15020309935830653 0.80765375057072009
0.061529 -0.12956599999999999 0.0625 0.55377010427314222 0.095975330228874223 0.82711994752923934
0.064592999999999998 -0.129631 0.060669000000000001 0.55523650508000744 0.03426547067834726 0.83098634221371548
0.067640000000000006 -0.12973000000000001 0.057738999999999999 0.49757539170118648 0.031284227969581142 0.86685640486401105
0.070712999999999998 -0.12976299999999999 0.056884999999999998 0.5036991228369937 0.019367578646713835 0.86366202333471065
0.073769000000000001 -0.12987899999999999 0.053588999999999998 0.58298208937679641 0.25406376849498591 0.77174055550035159
0.076832999999999999 -0.12991900000000001 0.052246000000000001 0.49174842882316894 0.26294974599154725 0.83008488351067167
0.079896999999999996 -0.129993 0.050292999999999997 0.55390977343174985 0.13127986434154576 0.82216151704835527
0.082970000000000002 -0.13006000000000001 0.048217999999999997 0.60762222931811971 0.081402896518873322 0.79004353986145348
0.086033999999999999 -0.13014200000000001 0.045898000000000001 0.59005489418424262 0.083893727551629063 0.80299256803952757
0.089089000000000002 -0.13025700000000001 0.042724999999999999 0.60767178523383847 0.077056603014285588 0.79044119412048519
0.092161999999999994 -0.13032299999999999 0.040894 0.57116344306868072 0.12126747614538406 0.81182912027794296
0.095226000000000005 -0.130413 0.038207999999999999 0.5670328625149923 0.095462100658871119 0.81814468168279952
0.098313999999999999 -0.13042999999999999 0.037719999999999997 0.48915923132440287 -0.21274032946629653 0.84585152280331743
0.101371 -0.13058700000000001 0.033203000000000003 0.58994246326868627 -0.33453616575518652 0.73488328585857288
0.104451 -0.130611 0.032349000000000003 0.52604935831080768 -0.30381511885383333 0.79433522279741486
0.10752299999999999 -0.13073499999999999 0.028930999999999998 0.57216062816717095 -0.4355556923611168 0.69492694179113279
0.110596 -0.13081000000000001 0.026610999999999999 0.39631369603225702 -0.65379430263303473 0.64458394657471541
0.113676 -0.13086700000000001 0.025146000000000002 0.05100071136836952 -0.77422217550140782 0.63085572867477979
0.116774 -0.13081000000000001 0.026610999999999999 -0.16583106311082801 -0.81450350148401396 0.55595332949611298
0.119863 -0.13079299999999999 0.027344 -0.057144183262591318 -0.81666619073199875 0.57427421606279527
0.122959 -0.13075100000000001 0.028441999999999999 -0.19855573589695544 -0.8264711158370871 0.52680272819094109
0.126057 -0.130629 0.031981999999999997 0.13823889377266174 -0.73806762149763749 0.6604136539664599
0.12912799999999999 -0.13084200000000001 0.025878999999999999 0.47491957559891623 -0.78171834991103262 0.40418785004663088
0.13220100000000001 -0.130991 0.021606 0.23862726864403314 -0.90876240766857952 0.34235641233646397
0.13836200000000001 -0.131271 0.01355 -0.14316129589000082 -0.66083493202614152 0.73675099998106575
0.14145099999999999 -0.131271 0.013306 0.14550127235349461 -0.62200774280275994 0.76937360731762172
0.14454 -0.131304 0.012451 0.40930310399169179 -0.45200098223083457 0.79256929105607354
0.14762900000000001 -0.13137799999999999 0.010376 0.34202469631207799 -0.52881207335746172 0.77677338920950012
0.150725 -0.13136900000000001 0.010619999999999999 0.23935983411066677 -0.70671691454875785 0.66577629313846687
0.15381400000000001 -0.131443 0.0084229999999999999 0.18573681783569365 -0.7596798086131985 0.6232081697841293
0.156912 -0.13145299999999999 0.0083009999999999994 0.066663105824255733 -0.82682066302366319 0.55850122785807188
0.16000800000000001 -0.131411 0.0095209999999999999 0.060095558057674837 -0.83487247678926624 0.54715306030533428
0.16309699999999999 -0.131443 0.0084229999999999999 0.1082893348093964 -0.80093548579327944 0.58887669979684354
0.16619400000000001 -0.131443 0.0084229999999999999 0.23841721450897935 -0.81252438574154728 0.53194111929902588
0.16928299999999999 -0.13153500000000001 0.0057369999999999999 0.26981691499727462 -0.85127340155098263 0.45003602988335611
0.17238000000000001 -0.131575 0.0046389999999999999 0.083803133545724592 -0.90429663705934371 0.41859840779806967
0.17547699999999999 -0.13164899999999999 0.002441 0.41501735972646775 -0.78285231022327706 0.46357615502067129
0.17858199999999999 -0.13175600000000001 -0.00073200000000000001 0.1714064528012785 -0.8597714046772168 0.481054009064937
0.181671 -0.131716 0.00048799999999999999 -0.044908951348150671 -0.88004493035232922 0.47276220941396496
0.18476899999999999 -0.13172300000000001 0.00036600000000000001 -0.04992289395924393 -0.78321067360432117 0.61974893740207371
0.187865 -0.13170599999999999 0.00073200000000000001 -0.2712735580362961 -0.63625195190203943 0.72221472597225067
0.19096299999999999 -0.13164899999999999 0.002441 -0.496291778519656 -0.56081246820455011 0.66270947335926711
0.19404299999999999 -0.131493 0.0069579999999999998 -0.50169987796297388 -0.42585480894993272 0.75295744510971763
0.197132 -0.131468 0.0078120000000000004 -0.57603963752515697 -0.32395584682898232 0.75048713866741434
0.20022100000000001 -0.131353 0.010985999999999999 -0.50558913789056104 -0.35724689387002345 0.78533704895878897
0.20330899999999999 -0.131304 0.012573000000000001 -0.53446991951570233 -0.37372125084616331 0.75807277473792567
0.20638999999999999 -0.13117999999999999 0.015990999999999998 -0.67037976180449166 -0.21916154005028307 0.70891409516650283
0.20947099999999999 -0.13106499999999999 0.019408999999999999 -0.50504374971886479 -0.058711485729312271 0.86109451996477449
0.21255099999999999 -0.131023 0.020629999999999999 -0.35488427884713836 0.001387457592838165 0.93490920606686423
0.21564 -0.13100600000000001 0.021118000000000001 -0.28882066806668794 -0.081373727112651617 0.95391872726837046
0.21872900000000001 -0.13097400000000001 0.021972999999999999 -0.37055288755533838 -0.27301200553450256 0.88778094277723119
0.22180900000000001 -0.130909 0.023925999999999999 -0.49237073343097559 -0.31005277439860984 0.81328859450281732
0.22489000000000001 -0.13084200000000001 0.025756999999999999 -0.43460044863419373 -0.20929246672054258 0.87596752988965765
0.22797000000000001 -0.13081000000000001 0.026733 -0.51896730957829951 -0.21878995657023825 0.82631948209700024
0.231043 -0.13070300000000001 0.029907 -0.55841646230511111 -0.18179134939628541 0.80939666413404632
0.234123 -0.13066900000000001 0.030762000000000001 -0.46665079463398246 -0.17141052412521712 0.86767244285305678
0.23718700000000001 -0.130547 0.034424000000000003 -0.54333115221969108 -0.27924396956182451 0.7917158988494406
0.24026 -0.13048699999999999 0.035888999999999997 -0.30140456443538122 -0.30513288384543991 0.9033544219926547
0.24334900000000001 -0.130472 0.036377 -0.34253817198136388 -0.38512669821655782 0.85693933685907908
0.24641299999999999 -0.130388 0.038940000000000002 -0.40085410852242059 -0.24328700032399028 0.8832482205779133
0.24949399999999999 -0.13037299999999999 0.039428999999999999 -0.47142520617808725 -0.23224577517817543 0.85077621904460654
0.252558 -0.13028100000000001 0.041869999999999997 -0.57160221249367615 -0.19593662662023612 0.79679341677816118
0.25562200000000002 -0.13019900000000001 0.044311999999999997 -0.5973694325318577 -0.078440267664036223 0.79812084641698267
0.25868600000000003 -0.13009999999999999 0.047119000000000001 -0.48423134841801946 0.076514435121323013 0.87158794302544795
0.26175799999999999 -0.13006799999999999 0.048096 -0.33691579521092252 0.096809776233076669 0.93654450730496164
0.26483800000000002 -0.13004299999999999 0.048828000000000003 -0.35220703164078576 0.10414100514413156 0.93011013214046678
0.26791100000000001 -0.13001799999999999 0.049438000000000003 -0.39181689839904227 0.11984418187657282 0.9122044125081229
0.27096700000000001 -0.129936 0.051880000000000003 -0.39135160225140309 0.13665099536499309 0.91003869636461954
0.27404699999999999 -0.12991900000000001 0.052246000000000001 -0.2778598159507189 0.24987218822010965 0.92755474891454626
0.277111 -0.12986200000000001 0.054077 -0.30176715930458214 0.1143655021500663 0.9464972865693837
0.280192 -0.12986900000000001 0.053832999999999999 -0.14872109686325535 0.01037061447538791 0.98882480030751319
0.28326400000000002 -0.12981999999999999 0.055053999999999999 0.015581066486095283 0.0092966684855348841 0.99983538761249391
0.28636200000000001 -0.12989400000000001 0.053101000000000002 0.1844908763604286 0.29616358926503916 0.93715006532220346
0.28944199999999998 -0.129887 0.053222999999999999 -0.010350778753256943 0.39847769076982353 0.91711961670108777
0.292522 -0.12987899999999999 0.053467000000000001 -0.028814617617257062 0.36603913634119156 0.930153249996024
0.295595 -0.129854 0.054198999999999997 0.026696217791093997 0.35714768926880314 0.93366634297569329
0.29868400000000001 -0.12986900000000001 0.053711000000000002 0.2752110488676433 0.29013012345853867 0.91656063086034012
0.30177199999999998 -0.129911 0.052490000000000002 0.41144274837631312 0.075706141023626758 0.90828599296689405
0.30488599999999999 -0.12998599999999999 0.050292999999999997 0.40451867508445943 -0.089133975307409755 0.91017568411478222
0.30798300000000001 -0.130026 0.049194000000000002 0.35432005414257273 -0.15209709323827508 0.92267208338654738
0.31106400000000001 -0.130026 0.04895 0.5718147551571926 -0.019241262135491793 0.8201570944739508
0.31420999999999999 -0.13018399999999999 0.044434000000000001 0.76468190830177174 0.02526603660804851 0.64391242145968997
0.38853900000000002 -0.13599 -0.123901 0.0051390254842486579 0.31798493916791787 0.94808183659399781
0.39167800000000003 -0.13600699999999999 -0.124268 -0.022843168411726414 0.075888188968838227 0.99685463956985376
0.39481500000000003 -0.136015 -0.12463399999999999 -0.14378927272190656 0.096037088827169728 0.98493731913239413
0.39792100000000002 -0.135965 -0.123169 -0.22139776619664772 0.044859228818707228 0.9741512606946241
0.40105099999999999 -0.135965 -0.123169 -0.41702283986249139 -0.087689390568521555 0.90465602403053946
0.40413199999999999 -0.135883 -0.12085 -0.60148371696257852 0.046084275863615111 0.79755474905927737
0.40720400000000001 -0.13580100000000001 -0.118286 -0.56083670929648266 0.3560026672856017 0.7474786193537778
0.41026800000000002 -0.13569500000000001 -0.115234 -0.49866730286301503 0.48894277976747452 0.7157275174035026
0.41337299999999999 -0.135653 -0.114258 -0.35794557689083606 0.53676166785398161 0.76404311128816427
0.41645300000000002 -0.13558600000000001 -0.112305 -0.34688497517500932 0.48123486438852314 0.80503653289449717
0.41953499999999999 -0.13551299999999999 -0.11022899999999999 -0.37928394641393981 0.43436860039710246 0.81698690747265335
0.42265599999999998 -0.13551299999999999 -0.110107 -0.35439795838216942 0.50513061319448649 0.78692131163688284
0.42572900000000002 -0.13542899999999999 -0.10778799999999999 -0.33023068424100749 0.40519480062661861 0.85250505495913098
0.428842 -0.135405 -0.107178 -0.32619475962349609 0.35149553218465807 0.87752371457892453
0.43193900000000002 -0.135355 -0.105835 -0.16215801265853569 0.4484347975821309 0.87898294138629751
0.43507800000000002 -0.13538 -0.106445 -0.25682919898142903 0.31350013505811447 0.9141971493442218
0.43814199999999998 -0.135298 -0.104004 -0.35076162668859406 0.25922618434492012 0.89987113888197612
