-0.132225 -0.985127 0.301606 0.085316 -0.903457 0.420104 
-0.638548 0.203588 -0.771391 -0.577719 0.133465 -0.805251 
-0.918956 0.263617 0.021067 -0.983036 0.168190 -0.073162 
-0.738005 0.123646 -0.579733 -0.662237 0.338397 -0.668528 
-0.503248 -0.788191 -0.170657 -0.448729 -0.868642 -0.210008 
-0.150225 0.931548 0.094094 -0.059330 0.981497 0.182052 
0.700164 -0.679750 0.016064 0.734237 -0.644032 0.214753 
-0.221177 -0.711709 0.664697 -0.167942 -0.963368 0.209090 
0.643822 0.643462 0.442117 0.664101 0.304551 0.682802 
0.137643 -0.951593 -0.259207 0.376722 -0.837168 -0.396522 
-0.672091 -0.413455 0.583843 -0.943283 -0.029488 0.330676 
0.789517 0.275421 0.604582 0.862277 0.041684 0.504719 
-0.752729 -0.387749 -0.564683 -0.862433 0.082823 -0.499350 
0.580506 -0.498381 -0.676796 -0.318000 -0.729345 -0.605748 
-0.536166 -0.598120 0.413491 -0.023910 -0.831887 0.554430 
-0.684703 -0.514759 0.147039 -0.834385 -0.491503 0.249451 
-0.184031 -0.422734 0.909925 -0.259481 -0.504567 0.823457 
-0.592647 0.682558 -0.304009 -0.294647 0.741250 -0.603101 
-0.049539 0.699108 0.766591 -0.279534 0.408004 0.869134 
-0.741443 -0.722185 0.046068 -0.618455 -0.746314 0.246026 
0.560558 -0.484460 -0.598016 0.964982 -0.067866 0.253385 
0.594625 0.735704 -0.358879 0.747605 0.386445 -0.540136 
0.175046 0.140259 -0.949629 0.312454 0.132085 -0.940705 
-0.787092 -0.451761 -0.417298 -0.851307 -0.397017 -0.343007 
-0.864253 -0.013348 0.568832 -0.854677 0.396037 0.335681 
0.548183 -0.858819 -0.341031 0.155538 -0.978693 0.134048 
0.658443 0.307153 -0.644489 0.341372 0.854126 0.392344 
0.293915 0.291175 0.991901 0.135194 0.276707 0.951397 
0.040314 -0.130062 -0.869696 -0.172628 -0.165807 -0.970931 
0.248703 0.856539 0.592961 0.375373 0.839701 0.392425 
-0.656445 0.681219 0.362455 -0.417578 0.459683 0.783786 
-0.301602 0.638498 0.571411 -0.366094 0.671036 0.644737 
-0.106799 0.042753 -1.017360 -0.036183 -0.077588 -0.996329 
0.435088 -0.439775 0.805108 0.579111 -0.538938 0.611699 
0.531041 0.811566 -0.140892 0.337583 0.165832 -0.926573 
-0.711304 -0.690932 -0.335838 -0.283377 -0.956980 -0.062348 
0.677207 0.632405 -0.193900 0.829690 0.524545 -0.190964 
-0.601461 0.492045 -0.641578 -0.507056 0.045086 -0.860733 
0.414822 0.691504 0.553960 -0.385477 0.815075 0.432504 
0.439753 0.723557 -0.428521 0.444136 0.741313 -0.503188 
0.861146 0.064855 0.597691 0.847719 0.199981 0.491304 
0.686693 0.189267 0.576847 0.862401 0.177999 0.473900 
-0.742860 0.165103 0.620647 -0.786888 0.348880 0.509008 
-0.121048 -0.704225 -0.658710 -0.263024 -0.669122 -0.695050 
0.008740 -0.933413 -0.517401 -0.404350 -0.914557 -0.009257 
0.774248 -0.152805 0.605042 0.706666 -0.220615 0.672274 
-0.306579 -0.782649 0.528387 -0.753927 -0.599721 0.268196 
0.149875 -0.484154 -0.815944 0.311481 -0.315552 -0.896330 
-0.869972 0.258513 0.346426 -0.640904 -0.598299 -0.480916 
0.233529 0.842993 -0.382743 0.346271 0.586660 0.732070 
-0.349172 -0.772241 0.591466 -0.159459 -0.894599 0.417452 
1.059480 0.098496 -0.044363 0.989108 0.017946 0.146095 
-0.164381 -0.094839 -0.878021 -0.113868 -0.210455 -0.970949 
0.769048 -0.647935 0.289404 0.788407 -0.498109 0.360974 
-0.759533 -0.747728 -0.088807 -0.458436 -0.868681 -0.187697 
0.340530 0.779116 -0.594571 -0.040394 0.795286 -0.604887 
0.695315 -0.641842 -0.319423 0.917477 -0.315503 -0.242269 
0.378539 0.654918 0.696053 -0.050300 -0.255746 0.965435 
-0.120909 -0.017212 -0.974213 0.108827 -0.001045 -0.994060 
0.210176 0.456959 0.786155 0.424296 0.004947 0.905510 
-0.247609 -0.878270 0.375847 -0.419318 -0.907695 -0.016166 
-0.471350 0.659894 -0.567476 -0.621187 0.780472 0.070646 
-0.302047 0.560918 0.782799 -0.417194 0.675467 0.608024 
-0.254038 -0.868447 -0.223165 -0.329929 -0.942787 -0.047949 
-0.238105 -0.677380 0.660658 0.006697 0.494517 0.869142 
-0.341696 -0.134620 -0.861257 -0.291703 -0.385316 -0.875466 
0.210978 -0.793917 0.544374 0.607837 -0.551805 0.571004 
-0.845621 -0.323313 0.557940 -0.939706 0.244073 0.239545 
-0.816175 0.718350 0.011805 -0.745787 0.632962 0.207753 
0.202581 0.724807 -0.705376 0.413462 0.534024 -0.737474 
0.128801 -0.696309 0.741871 -0.393446 0.159779 0.905357 
0.265799 -0.545840 0.651376 0.507625 -0.585549 0.632020 
-0.550389 0.558950 -0.591922 -0.650183 0.074151 -0.756150 
-0.587834 -0.885026 0.126861 -0.176289 -0.936127 0.304283 
-0.225216 0.878106 0.462324 -0.531165 0.704999 0.469936 
-0.702379 -0.152875 -0.646633 -0.809343 -0.133505 -0.571962 
-0.270006 0.908408 -0.083390 -0.468260 0.780960 -0.413320 
0.141250 -0.552971 -0.851627 0.235720 -0.691812 -0.682519 
0.865782 0.325238 0.361582 0.629592 0.490635 0.602404 
-0.375966 -0.219027 0.799873 0.010107 -0.182063 0.983235 
0.439734 0.661945 0.732113 0.076715 -0.207733 0.975173 
-0.737243 -0.687484 0.114386 -0.757671 -0.652607 0.006294 
0.071316 -0.399160 0.781495 -0.107144 -0.418066 0.902076 
0.555541 -0.248655 -0.713332 0.238326 -0.495098 -0.835511 
0.678334 0.731319 0.326123 0.893535 0.025047 0.448295 
-0.596608 -0.537981 -0.647425 -0.088258 -0.838129 -0.538284 
-0.547893 -0.112746 -0.795280 -0.543219 -0.606787 -0.580279 
0.158459 -0.557995 -0.801085 0.508965 -0.327911 -0.795882 
-0.592207 -0.690120 0.535033 -0.624612 -0.743890 0.237670 
-0.262787 0.793332 0.490076 -0.531440 0.521998 0.667151 
-0.433449 0.610944 -0.568006 -0.318367 0.783980 -0.532933 
-0.179654 -0.792740 -0.633453 -0.430333 -0.613300 -0.662327 
0.497905 -0.669971 -0.558454 0.548266 -0.836017 0.021891 
-0.358949 0.519864 -0.838910 -0.400925 0.456853 -0.794069 
-0.783529 0.421971 -0.210481 -0.840812 0.294032 -0.454510 
0.583339 -0.666962 0.549118 -0.095689 -0.576160 0.811716 
-0.748986 0.539129 0.352306 -0.780206 0.303406 0.547013 
0.124470 -0.782796 0.553950 -0.199554 -0.561605 0.802981 
0.228026 -0.453341 0.833816 0.046491 -0.255925 0.965578 
0.560940 0.925162 0.141867 0.419660 0.876650 -0.235310 
-0.554199 -0.819717 0.266490 -0.614765 -0.653854 0.441066 
-0.695101 -0.802255 -0.017336 -0.981974 -0.162713 -0.096182 
-0.837295 0.348021 -0.213214 -0.801455 0.359229 -0.478146 
-0.623029 0.468364 -0.604644 -0.350249 -0.047689 -0.935442 
0.862219 -0.461707 -0.357454 0.808807 -0.412817 -0.418824 
0.643593 -0.659272 -0.374459 0.643992 -0.764545 -0.027301 
-0.413574 0.688941 0.445737 -0.869747 0.126826 0.476924 
0.189386 -0.758970 0.670848 0.669596 -0.506459 0.543268 
0.333445 0.646335 -0.682624 0.081322 0.783960 -0.615463 
-0.151361 0.861401 0.505211 -0.037247 0.770694 0.636115 
0.592318 -0.475119 0.628997 0.545657 -0.155812 0.823396 
-0.152178 1.007900 0.176127 -0.437135 0.802841 0.405413 
-0.427949 0.611928 -0.679735 -0.093932 -0.297249 -0.950168 
0.587448 -0.726563 -0.426156 0.551730 -0.780971 -0.292708 
0.960959 -0.439253 -0.040538 0.798346 -0.602045 0.013618 
0.552700 0.473098 0.795978 -0.144390 0.582053 0.800229 
-0.316859 -0.746200 0.679030 -0.586000 -0.693812 0.418603 
-0.936066 -0.420389 0.098703 -0.488228 0.473778 -0.732917 
-0.807609 0.268028 -0.559812 -0.423177 0.023647 -0.905738 
0.465397 -0.474569 0.714612 0.360050 -0.714444 0.599944 
-0.905335 -0.236306 0.195467 -0.916048 -0.390579 0.091131 
0.573093 0.599260 0.687503 0.906819 0.292091 -0.303911 
1.061640 -0.103563 -0.121525 0.984636 -0.163033 0.062546 
-0.634563 -0.367463 0.708762 -0.629539 -0.501339 0.593582 
1.044170 -0.015340 -0.277448 0.952712 0.031428 -0.302246 
0.585195 0.796961 -0.339275 0.674491 0.734992 -0.069627 
0.435959 -0.824160 -0.027146 0.731237 -0.659662 0.173602 
-0.647432 -0.582578 0.563210 -0.950290 -0.202563 0.236467 
0.470087 -0.105397 0.938940 0.241874 -0.365143 0.898981 
-0.392322 -0.507853 0.746706 -0.335077 -0.663323 0.669123 
0.773007 0.262820 0.681178 0.326251 0.703797 0.631055 
-0.430681 0.614344 -0.476710 -0.416453 0.730176 -0.541674 
0.384369 0.086968 0.942093 0.443381 -0.445013 0.778059 
0.471932 0.652166 -0.565249 0.437514 0.792708 -0.424495 
-0.638938 0.642751 0.470971 -0.796768 0.371771 0.476390 
0.713122 0.339314 -0.610840 0.926628 0.169508 -0.335599 
-0.771588 0.422848 0.177827 -0.798454 0.469362 0.377055 
-0.892088 0.162164 0.428067 -0.540387 -0.267415 0.797792 
0.717563 0.432743 -0.379116 0.701605 0.558270 -0.442815 
-0.178209 -0.938094 -0.055435 -0.380464 -0.895352 -0.231500 
0.570601 -0.636836 0.495431 0.720334 -0.689218 -0.078092 
0.650960 0.341698 -0.487557 0.705808 0.396877 -0.586791 
-0.502752 0.168258 0.791916 -0.278973 0.214967 0.935929 
-0.640191 0.767841 0.024505 -0.515980 0.855068 0.051216 
0.763475 -0.785883 -0.000805 0.856577 -0.514157 0.043797 
0.535792 -0.614332 0.579943 0.281373 -0.789630 0.545265 
0.337296 -0.805723 -0.444416 0.794574 -0.603576 -0.065940 
0.594206 0.603313 0.579627 0.382611 0.722902 0.575345 
0.425439 0.315997 0.819261 0.636885 0.546052 0.544247 
0.094519 -1.015920 0.081989 0.234272 -0.942077 -0.240017 
-0.444258 0.719391 -0.390514 -0.957206 0.211521 -0.197526 
0.342962 0.201516 0.927034 0.338080 0.049375 0.939821 
0.620174 -0.741950 0.428206 0.453545 -0.891126 -0.013862 
0.276353 -0.742786 -0.520359 0.185591 -0.816045 -0.547381 
0.756174 0.050792 0.674750 0.629328 0.072476 0.773753 
-0.151598 0.936984 -0.159617 -0.006837 0.971847 -0.235514 
-0.267298 0.234630 -0.946478 -0.282902 0.689045 -0.667221 
0.261690 0.110816 -0.874536 0.426925 -0.184243 -0.885319 
0.004542 -0.073111 -0.944354 -0.202362 -0.252923 -0.946086 
-0.913396 -0.386916 -0.019382 -0.991667 -0.123708 -0.035968 
0.441716 -0.752421 0.623766 0.684456 -0.440240 0.581127 
0.556718 0.583218 0.565767 -0.657251 -0.177207 0.732542 
-0.659212 -0.404811 0.614802 -0.469396 -0.209059 0.857882 
0.292452 0.907417 -0.004391 0.192624 0.970559 0.144605 
0.997310 -0.015740 -0.261939 0.927531 0.179877 -0.327613 
0.262851 -0.605581 -0.659569 -0.049595 -0.331989 -0.941978 
0.625971 0.593967 0.551381 0.796258 -0.321816 0.512257 
0.681679 0.551268 0.341818 0.612934 0.600121 0.513971 
0.638705 0.738571 0.257839 0.669094 0.729336 0.142770 
-0.614382 0.500814 0.562789 -0.593474 0.405304 0.695354 
-0.542820 0.850070 -0.025184 -0.694281 0.667958 0.267967 
0.423709 0.022893 -0.938223 0.415086 -0.278534 -0.866096 
0.110140 -0.719704 -0.623634 0.315839 -0.693155 -0.647906 
0.928335 -0.032180 0.408297 0.964037 -0.039519 0.262813 
0.986739 -0.044105 0.191741 0.925605 0.261592 0.273541 
0.752819 -0.541569 -0.071792 0.654783 -0.751279 -0.082700 
0.520894 -0.746394 -0.487844 0.322300 -0.848956 -0.418804 
-0.523500 0.645494 -0.462751 -0.827772 -0.199135 -0.524536 
0.176953 -1.018830 0.024266 -0.050417 -0.998694 -0.008214 
0.711285 -0.775826 -0.189427 0.376864 -0.885219 -0.272693 
0.713455 0.185035 -0.658047 0.859000 -0.051424 -0.509387 
0.664390 -0.410226 0.629410 0.881275 -0.066588 0.467890 
0.488319 -0.766797 -0.391143 0.708426 -0.611026 -0.353242 
0.964106 -0.131212 0.345125 0.903875 -0.076837 0.420841 
0.667832 -0.214961 -0.760666 0.578818 -0.253145 -0.775169 
0.469720 0.047422 0.837844 0.346927 0.374885 0.859711 
0.695723 0.512007 -0.330900 0.804409 0.346980 0.482214 
0.796418 0.622691 0.000427 0.568954 0.808958 0.147913 
0.774125 0.395108 -0.376577 0.617372 0.321556 -0.717951 
-0.302320 -0.450865 0.852842 -0.155856 -0.198876 0.967552 
-0.440450 0.055375 -0.879846 -0.343259 0.938368 -0.040477 
-0.360443 -0.823826 -0.504092 -0.253989 -0.839786 -0.479844 
-0.077542 -0.949066 0.048839 -0.187409 -0.974146 -0.126165 
-0.927545 0.048263 0.249043 -0.921589 0.139670 0.362169 
-0.631956 0.781369 -0.362569 -0.478324 0.864557 -0.154104 
0.398869 0.715327 0.729781 -0.213344 0.176145 0.960967 
-0.574070 0.631610 -0.524517 -0.357666 0.785280 -0.505382 
0.168067 0.453086 -0.944930 -0.117538 0.237599 -0.964226 
0.442332 -0.489904 0.776514 0.937230 -0.047390 0.345478 
-0.647443 0.358611 -0.496671 -0.608087 0.495306 -0.620405 
0.552155 0.316715 -0.813278 0.357980 0.224289 -0.906391 
0.566762 -0.141798 0.805409 0.287565 -0.692230 0.661909 
-0.059030 -0.856097 -0.497774 0.091087 -0.046292 -0.994766 
0.641141 -0.459785 0.727561 0.416429 -0.406320 0.813321 
0.455956 0.607370 0.549675 0.269859 0.962509 0.027443 
-0.344993 -0.503746 -0.793981 -0.021632 -0.713561 -0.700259 
0.730774 -0.053291 0.645400 0.494087 -0.300512 0.815825 
0.733412 0.543448 0.371589 0.372320 0.599030 0.708901 
0.631643 -0.719016 0.261957 0.564112 -0.664673 0.489885 
0.314419 -0.027425 -0.963422 0.170809 0.110525 -0.979086 
0.734945 -0.509248 -0.362824 0.988452 0.004084 -0.151481 
0.348218 -0.856208 -0.258326 0.426595 -0.897389 -0.112738 
-0.042714 -0.895387 -0.458398 -0.555154 -0.785397 -0.273781 
-0.219350 0.187358 -0.885939 -0.326332 0.360213 -0.873930 
0.296549 -0.357941 -0.844232 0.493878 -0.279602 -0.823351 
0.970628 0.289356 0.140979 0.959452 0.024047 0.280845 
-0.936222 0.059448 0.265924 -0.972768 0.027020 0.230203 
-0.894884 -0.188067 0.195817 -0.995236 -0.066414 0.071375 
-0.525563 -0.359821 0.675739 -0.567524 -0.248870 0.784844 
-0.474520 -0.762184 -0.505924 0.182824 -0.978193 0.098560 
0.159192 -0.318608 0.889183 0.039822 -0.426702 0.903515 
0.288564 -0.755006 0.614685 -0.253892 -0.768005 0.587969 
-0.110015 -0.668847 0.679763 -0.348744 -0.587421 0.730284 
0.113113 -0.664156 0.824495 0.364262 -0.693023 0.622119 
-0.540566 0.882961 -0.064911 -0.483311 0.871452 -0.083556 
0.812373 -0.423388 -0.379755 0.545827 -0.542154 -0.638860 
-0.335240 0.693903 0.666265 -0.507062 0.471908 0.721243 
0.846143 -0.515966 -0.329760 0.756901 -0.645676 -0.101009 
0.699542 -0.430745 -0.612661 0.226077 -0.924186 0.307848 
0.185598 0.915205 -0.322445 0.247514 0.968248 -0.035116 
-0.439016 -0.736258 0.440389 -0.541552 -0.710011 0.450117 
-0.812975 -0.491386 0.348210 -0.914564 0.209255 0.346100 
0.932446 -0.221515 -0.510254 0.933888 -0.068915 -0.350862 
0.091100 0.953407 -0.278577 0.177834 0.936081 -0.303526 
-0.209781 0.919863 0.340879 -0.137184 0.975300 0.173119 
0.748515 0.534330 0.061467 0.651701 0.740847 0.162580 
-0.017038 -0.270496 -1.073780 -0.063287 -0.433442 -0.898957 
-1.008670 0.005736 0.069908 -0.995453 -0.093904 -0.015961 
0.051212 0.800087 -0.577900 0.400310 0.731487 -0.551976 
-0.639148 0.821126 0.312011 -0.717794 0.503063 0.481352 
0.043453 -0.601172 0.762363 -0.019958 -0.393700 0.919022 
-0.570130 -0.887141 -0.310220 -0.482706 -0.872162 -0.079555 
-0.452988 0.790286 -0.163098 -0.299308 0.865592 0.401454 
0.556554 0.664871 0.554510 0.058817 0.583045 0.810308 
0.113944 1.056550 -0.045842 0.131258 0.976096 0.173228 
-0.300772 -0.334078 -0.880121 -0.525366 -0.418115 -0.741061 
0.552977 -0.612026 0.640117 0.190684 -0.838404 0.510607 
0.432890 -0.676650 0.759574 0.122302 -0.563144 0.817258 
-0.094127 -0.501805 0.893568 0.205041 -0.265321 0.942106 
0.125942 -0.859789 -0.425127 0.227664 -0.856992 -0.462314 
-0.744598 0.019213 -0.633887 -0.662865 0.011283 -0.748654 
-0.232851 0.220468 -0.968565 -0.091103 0.465488 -0.880353 
0.356642 -0.278271 -0.898156 0.527039 -0.478786 -0.702136 
0.873266 -0.188209 0.547137 0.634712 -0.643101 0.428442 
0.395402 0.686298 0.752117 -0.312457 0.018208 0.949758 
-0.728032 0.022778 0.627828 -0.004558 0.897776 0.440429 
-0.451241 0.584776 0.590880 -0.731382 0.317195 0.603711 
0.563531 0.693271 0.277614 0.524975 0.834863 0.165548 
-0.561032 -0.829161 -0.195946 0.203387 -0.965145 -0.164711 
-0.804844 -0.502928 0.264892 -0.884582 -0.432200 0.175266 
0.729278 0.116583 -0.603921 0.664289 0.155725 -0.731074 
-0.708861 -0.755347 0.382176 -0.836012 -0.548509 -0.014882 
-0.724869 -0.651784 0.220302 -0.786990 -0.438216 0.434296 
0.680603 0.513854 -0.507574 0.751564 0.628065 -0.201710 
0.209781 0.464411 -0.872425 0.367821 0.697094 -0.615441 
0.673379 0.773691 -0.138354 0.780186 0.606632 -0.152667 
-0.103636 0.766881 -0.621476 -0.237241 0.703322 -0.670116 
-0.886983 0.325067 0.142705 -0.874371 0.375544 0.307313 
-0.401111 -0.915375 -0.266445 -0.761089 -0.598564 0.249931 
0.747890 0.555527 0.147742 0.558171 0.826743 -0.070294 
0.587547 -0.117568 0.814189 0.642425 -0.558884 0.524346 
-0.003735 -0.830904 -0.738463 -0.080721 -0.871640 -0.483453 
-0.657580 -0.629518 0.372962 -0.229411 -0.967799 0.103618 
0.339607 -0.781168 -0.404915 0.208549 -0.875918 -0.435057 
-0.420796 0.130274 0.862142 -0.365446 0.111968 0.924074 
0.726157 -0.699791 0.321559 0.537135 -0.770009 0.344342 
-0.556147 0.137266 -0.816858 -0.603879 0.210949 -0.768655 
0.568372 0.532307 -0.483626 0.510398 0.434242 -0.742245 
-0.916387 -0.004883 -0.274723 -0.955831 -0.147134 -0.254438 
-0.395957 -0.849964 0.533098 -0.437206 -0.777592 0.451886 
-0.646036 0.713849 0.161987 -0.206763 0.978254 0.016407 
-0.733164 -0.608024 -0.241545 -0.979574 0.164370 0.115832 
-0.786089 0.458946 -0.190611 -0.787329 0.596089 -0.157452 
0.316692 -0.418555 -0.838293 -0.722012 -0.066374 -0.688690 
0.521298 0.085343 0.787814 0.242054 0.121439 0.962633 
0.602275 -0.715452 0.343816 0.591391 -0.806054 -0.023106 
0.748436 -0.700428 -0.205787 -0.108440 -0.991902 0.066114 
0.613825 0.559265 -0.516399 0.799920 0.079826 0.594774 
0.323166 0.750936 -0.534114 0.349209 0.795034 -0.495958 
0.582245 0.039188 -0.786818 0.483429 -0.083941 -0.871350 
-0.659744 -0.808036 -0.207864 -0.396610 -0.877116 0.270865 
0.739572 0.666568 -0.035148 0.443146 0.887431 0.126839 
-0.045573 -0.417126 0.869425 0.089992 -0.600843 0.794285 
-0.714677 -0.513962 0.450997 -0.896638 -0.405307 -0.178230 
-0.229502 -0.580428 -0.697323 0.023247 -0.565572 -0.824371 
-0.580919 0.748294 -0.040534 -0.420296 0.902892 0.090203 
-0.229198 0.555016 -0.639341 -0.480778 0.559920 -0.674790 
0.059872 -0.555163 0.736650 -0.076528 -0.393121 0.916297 
-0.369931 -0.209494 0.819709 -0.425597 -0.300347 0.853615 
-0.189286 0.800878 0.666650 -0.338682 0.559646 0.756367 
-0.684298 0.444356 0.568022 -0.648864 0.404084 0.644742 
0.810842 0.181637 -0.522230 0.629891 0.100593 -0.770142 
0.636855 -0.801388 -0.126179 0.449674 -0.868322 -0.209308 
0.191169 0.537741 0.792952 0.728720 0.597345 0.334883 
-0.536811 0.386837 0.795999 -0.447389 0.829482 0.334370 
-0.047279 0.168207 -0.911069 0.551455 0.309322 -0.774737 
1.012470 -0.057051 -0.184048 0.947244 -0.162542 -0.276241 
-0.317881 0.847830 -0.355317 -0.935858 -0.197318 -0.291949 
-0.708688 -0.446782 0.611254 -0.646747 -0.652567 0.394810 
-0.542809 0.500783 -0.633481 -0.045759 0.922423 -0.383461 
0.752893 0.674150 0.001708 0.680400 0.673326 0.289287 
0.857904 -0.363784 -0.353183 0.886264 -0.083444 -0.455603 
-0.237858 0.563622 0.777826 -0.266357 0.536130 0.801011 
0.843284 -0.497507 0.375694 0.585024 -0.519414 0.622861 
-0.057173 0.535431 -0.763330 0.172535 0.749225 -0.639447 
-0.887435 0.166699 0.290642 -0.886470 0.123403 0.446031 
-0.731611 0.559435 0.362010 -0.517780 0.326718 0.790670 
-0.234695 0.532813 -0.791506 0.263882 0.180674 -0.947483 
-0.933888 0.335106 0.184109 -0.896794 0.317670 0.307971 
0.711670 0.218807 0.565220 0.915759 0.207866 0.343770 
0.138971 0.920055 0.401267 0.071743 0.888009 0.454194 
-0.553297 0.029345 0.831062 -0.522437 -0.151038 0.839195 
-0.785625 0.489873 -0.286480 -0.721752 0.678195 -0.138297 
0.208311 -0.613957 0.798449 0.219488 -0.767810 0.601907 
0.752884 -0.561130 0.347992 0.827161 -0.445981 0.341914 
0.595580 -0.433768 0.630466 0.825108 -0.008609 0.564909 
-0.904178 0.612535 -0.089298 -0.955463 0.210195 0.207143 
-0.909993 -0.219655 -0.000424 -0.869221 -0.477816 -0.127071 
0.130363 -0.309863 -0.910399 0.135080 -0.617569 -0.774830 
-0.226040 0.934272 -0.261159 -0.136877 0.916030 -0.377034 
0.373224 0.861538 -0.617185 0.213812 0.505259 -0.836061 
-0.054842 0.792662 0.674868 -0.394579 0.631282 0.667675 
0.912411 -0.290411 -0.502838 0.948500 -0.099521 -0.300739 
-0.242632 0.145251 -1.008310 -0.261480 0.135879 -0.955597 
0.717362 0.742931 0.229983 0.738227 0.436795 0.514034 
0.580558 0.644789 0.095510 0.700631 0.712712 -0.034016 
-0.958320 0.238614 -0.194820 -0.950684 0.226283 -0.212121 
-0.619124 -0.185995 -0.800389 -0.815177 0.067189 -0.575301 
-0.430081 -0.481520 0.617791 -0.758091 -0.254634 0.600383 
-0.586626 0.471880 0.583001 -0.143768 0.195060 0.970197 
0.305593 -0.220495 -0.898979 0.665864 0.435338 -0.605893 
0.636977 -0.796416 0.210766 0.426441 -0.830225 0.358990 
-0.645010 0.809323 -0.219385 -0.501252 0.515761 -0.694793 
-0.016048 -0.784340 0.687310 0.126055 -0.918732 0.374222 
-0.808530 -0.242666 0.532025 -0.714069 -0.308603 0.628387 
0.682016 -0.591347 0.555971 0.823931 0.066064 0.562826 
-0.745642 0.581558 -0.357617 -0.636009 0.615961 -0.464849 
-0.059741 -0.823000 -0.533332 -0.526096 -0.668839 -0.525241 
-0.115778 -0.688210 0.698232 0.114756 -0.653515 0.748164 
0.764822 0.677861 -0.256137 0.645572 0.711399 -0.277757 
0.582801 0.576472 -0.587877 0.477717 0.589212 -0.651626 
0.477714 -0.792977 0.432643 0.395171 -0.899391 0.186910 
-0.644559 0.299367 0.642060 0.031774 -0.348271 0.936855 
-0.707907 0.647559 -0.203664 -0.515484 0.853881 0.071856 
-0.533362 -0.647368 -0.517242 -0.539670 -0.579763 -0.610436 
-0.542568 0.290489 -0.693334 -0.745747 0.474120 -0.468051 
-0.423093 0.897992 0.303210 -0.756683 0.638706 -0.139587 
-0.703473 0.564107 0.272196 -0.650226 0.662967 0.371054 
0.088405 -0.787603 0.501844 -0.051260 -0.597032 0.800578 
0.662510 0.699187 0.419500 0.348229 0.782719 0.515836 
0.054667 -0.969946 -0.406322 0.355871 -0.888670 -0.289173 
-0.549168 0.040108 -0.932404 -0.539583 -0.243438 -0.805970 
-0.600562 0.553208 -0.394081 -0.780585 0.513682 -0.356115 
0.660265 0.534211 -0.346096 0.603224 0.734423 -0.311036 
0.764888 0.669431 -0.076315 0.469662 0.882832 -0.005001 
-0.337593 0.796929 -0.579910 -0.207304 0.969069 0.133904 
-0.493870 -0.113542 -0.777981 -0.549681 -0.242796 -0.799313 
0.116801 0.061868 -1.010760 -0.079697 -0.162160 -0.983541 
-0.743172 0.318661 -0.499688 -0.523407 0.539429 -0.659592 
0.194679 -0.839674 -0.500769 -0.262088 -0.786059 -0.559840 
-0.142060 0.507376 0.894737 -0.097883 0.473982 0.875077 
0.815860 -0.080353 0.508613 0.812952 -0.489734 0.315070 
-0.705564 0.569496 -0.414350 -0.662813 0.650697 -0.370503 
0.610812 -0.486318 0.458759 0.694984 -0.551801 0.460992 
0.455401 -0.800464 -0.450101 0.814441 0.146794 -0.561372 
0.976975 0.326665 0.330262 0.957388 -0.009225 0.288657 
0.391265 -0.415051 -0.746890 -0.046860 -0.253235 -0.966269 
0.695894 -0.232023 0.685829 0.458622 -0.623098 0.633573 
0.007116 0.849855 0.288408 0.018982 0.923631 0.382813 
0.737030 -0.717340 0.415500 0.364112 -0.921168 0.137373 
0.628569 -0.047959 0.780030 0.774796 -0.119555 0.620805 
0.546570 0.769318 0.302049 0.844590 0.337361 -0.415759 
-0.352556 0.561143 -0.672008 -0.630483 0.617844 -0.469850 
0.480853 0.734386 0.663237 0.693238 0.676960 0.247278 
-0.153742 0.434926 -0.851058 -0.191773 0.323858 -0.926466 
-0.796908 -0.271052 -0.427423 -0.758436 -0.168514 -0.629586 
-0.562333 0.702830 0.698059 -0.395080 0.854769 0.336572 
-0.501062 -0.007128 -0.966388 -0.675381 -0.418566 -0.607177 
-0.145740 0.862944 -0.318908 -0.111465 0.888469 -0.445195 
0.560100 -0.328763 0.695804 0.461303 -0.179913 0.868810 
0.066811 -1.023250 0.119531 0.155115 -0.985815 0.064096 
-0.520245 0.497758 -0.640766 -0.446057 0.769016 -0.457873 
-0.037329 -0.486212 -0.918973 -0.142724 -0.326317 -0.934423 
-0.809869 0.201810 0.797141 -0.631791 -0.044867 0.773839 
-0.459071 -0.761295 -0.597156 -0.266143 -0.661741 -0.700904 
0.149745 -0.772410 -0.486225 0.199224 -0.870297 -0.450437 
0.845690 -0.246306 -0.214583 0.931456 -0.306367 -0.196289 
-0.793909 -0.348262 0.478300 -0.491655 -0.651700 0.577548 
-0.866513 -0.388391 0.241261 -0.680732 -0.564121 0.467303 
-0.664621 0.567330 -0.379314 -0.125852 0.746375 -0.653518 
-0.605433 0.580804 -0.680621 -0.366717 0.661030 -0.654644 
0.434809 -0.238144 -0.919827 0.534744 -0.215331 -0.817118 
0.686598 -0.647170 -0.361974 0.042243 -0.943576 0.328451 
0.573349 -0.141255 -0.695942 0.511894 0.108860 -0.852123 
0.459495 -0.495306 0.641187 0.675712 -0.523708 0.518790 
-0.915256 0.063516 -0.485804 -0.889778 0.139138 -0.434667 
-0.675046 0.188486 -0.676017 -0.308587 0.170992 -0.935701 
0.019698 0.511474 -0.781537 0.282023 0.629221 -0.724254 
-0.899647 -0.025840 -0.592688 -0.836401 -0.295015 -0.461952 
0.234905 0.855117 -0.429750 0.270797 0.784637 -0.557686 
-0.850444 -0.283388 0.472606 -0.831829 0.089156 0.547824 
-0.212604 -0.672267 0.746834 -0.167888 -0.681988 0.711833 
-0.440359 0.393706 0.746425 -0.534859 0.504158 0.678050 
0.877015 -0.215048 0.239885 0.948753 -0.185211 0.256058 
-0.811199 -0.194841 -0.580442 -0.711531 0.327901 -0.621454 
0.254440 -0.977879 0.273716 0.155741 -0.978313 0.136560 
-0.339799 0.686263 -0.840852 -0.404830 0.438064 -0.802629 
-0.182124 0.384026 -0.955609 -0.138468 0.604557 -0.784434 
-0.568439 -0.474266 -0.624138 -0.946676 0.205823 -0.247874 
-0.456047 0.145684 0.904007 -0.139166 0.150719 0.978732 
-0.457501 -0.125786 0.857159 -0.655949 -0.067851 0.751750 
0.554187 0.422106 0.745716 0.359400 0.073216 0.930307 
-0.195424 0.234410 0.932527 0.009025 0.461327 0.887184 
0.004800 0.621823 0.765845 0.018154 0.612353 0.790376 
-0.190188 0.668863 -0.695269 0.090496 0.690560 -0.717591 
0.596835 0.054654 0.826607 0.298153 0.136536 0.944703 
-0.408141 0.130546 0.907530 -0.151834 0.102893 0.983036 
0.407670 0.394158 -0.859288 0.588656 -0.211081 -0.780339 
0.690027 0.673317 0.231013 0.622689 0.589275 0.514794 
-0.671423 0.704998 0.363243 -0.600185 0.714798 0.358946 
0.268805 0.104535 -0.924229 0.664967 -0.417325 -0.619401 
0.520947 -0.502834 0.625721 0.480312 0.228553 0.846796 
-0.934760 -0.077588 -0.199978 -0.950024 -0.117399 -0.289262 
0.603380 -0.831191 0.074578 0.074162 -0.868677 0.489797 
0.355178 -0.542184 0.662418 0.299998 -0.458600 0.836473 
-0.573125 -0.496678 0.621110 -0.536231 -0.392494 0.747265 
-0.468970 -0.119792 0.877061 -0.406658 -0.167059 0.898176 
0.530732 -0.602232 0.571659 0.133382 -0.713852 0.687477 
-0.784599 0.516653 0.357897 -0.631583 0.523584 0.571806 
-0.536529 -0.778196 -0.190036 -0.553005 -0.832605 0.030887 
0.597941 0.240629 -0.799186 0.504126 0.045670 -0.862422 
0.649928 -0.582039 0.580159 0.744208 -0.502938 0.439553 
0.429013 -0.453562 -0.884259 0.567331 -0.218314 -0.794024 
0.414428 0.733576 -0.419999 0.577700 0.783966 -0.227289 
-0.641052 0.799445 -0.049299 -0.191137 0.915477 -0.354074 
-0.891891 0.004680 -0.260636 -0.980627 0.115329 -0.158334 
0.744669 -0.005694 -0.687446 0.907795 0.116207 -0.402993 
1.021970 0.275484 0.165862 0.907104 0.240925 0.345135 
0.047672 -0.611580 0.896089 -0.093281 -0.324837 0.941158 
0.069346 0.815240 0.520526 -0.083272 0.984592 0.153770 
-0.804371 -0.237827 -0.556277 -0.629216 -0.467222 -0.621120 
0.742113 0.580398 -0.417571 0.603951 0.476890 -0.638607 
-0.748814 -0.428376 0.525739 -0.739118 -0.654691 0.158380 
0.532429 -0.455530 -0.700055 0.593596 -0.597959 -0.538598 
-0.300160 0.822562 0.398453 0.031231 0.977267 -0.209700 
0.579434 0.620832 -0.403767 0.743996 0.653441 -0.139591 
0.859054 -0.237404 0.351746 0.861425 -0.159849 0.482075 
0.184518 -0.647107 0.794672 0.017613 -0.943832 0.329955 
0.231123 -0.986896 0.129157 0.378506 -0.907095 0.184154 
-0.621696 -0.158923 -0.949635 -0.302036 -0.251420 -0.919545 
0.026251 -0.807920 -0.546925 -0.032166 -0.639433 -0.768174 
-0.157022 -0.950500 0.200147 -0.043057 -0.985602 -0.163510 
-0.538491 0.734558 -0.584489 -0.105369 0.814852 -0.570012 
-0.806294 -0.335382 0.487386 -0.327194 -0.842007 0.428915 
-0.217620 0.607086 0.703354 0.016930 0.582472 0.812674 
-0.856390 -0.315257 0.501619 -0.808497 0.566692 -0.158720 
-0.960271 -0.419140 0.086644 -0.948213 0.026866 -0.316497 
0.217658 -0.859296 -0.557663 0.005221 -0.753417 -0.657522 
-0.553828 0.809307 0.404726 -0.692896 -0.655821 0.299655 
0.800872 0.187039 0.612718 0.876880 0.371256 0.305368 
-0.847716 0.610817 -0.216313 -0.890469 0.450558 -0.063730 
0.833841 -0.384405 0.312437 0.904900 -0.252795 0.342419 
0.431571 -0.584388 -0.627208 0.728550 -0.603778 -0.323522 
0.387414 -0.756106 0.299270 0.527828 -0.795666 0.297175 
-0.026818 -0.745167 0.691816 -0.045719 -0.873535 0.484609 
-0.700680 -0.234426 0.621722 -0.674087 -0.473138 0.567227 
-0.846013 -0.405038 0.003476 -0.977584 0.022803 0.209307 
-0.385099 -0.549228 -0.665989 -0.377065 -0.924633 -0.053627 
-0.026216 0.917943 0.441219 -0.081597 0.944324 0.318738 
-0.145062 -0.377804 0.845623 -0.215979 -0.311057 0.925525 
-0.153183 0.967626 0.051805 0.172265 0.933553 0.314330 
0.876819 -0.415661 -0.450081 0.651201 -0.642701 -0.403575 
0.881442 -0.484943 -0.100103 0.893656 -0.407887 0.187104 
0.355547 -0.433673 0.734390 0.261010 -0.810495 0.524378 
-0.586671 0.320726 -0.647990 -0.392158 0.486562 -0.780685 
-0.991507 0.165981 -0.145530 -0.948608 0.280535 -0.146437 
-0.131230 -0.906273 0.268239 0.095753 -0.846030 0.524466 
-0.388368 -0.264034 -0.868042 -0.013970 -0.496461 -0.867947 
0.642938 0.724103 -0.219886 0.672893 -0.489008 -0.555055 
0.612332 -0.041025 -0.815330 0.647282 0.012519 -0.762148 
-0.453952 -0.651613 -0.656506 -0.207251 -0.676816 -0.706376 
0.770478 -0.501272 -0.489959 0.728346 -0.496301 -0.472438 
0.301293 -0.605821 0.684254 0.302091 -0.143820 0.942368 
-0.604125 -0.581807 -0.575905 -0.384200 -0.572031 -0.724687 
-0.395303 -0.565394 -0.787815 -0.525950 -0.100639 -0.844540 
-0.369469 0.794393 -0.453705 -0.481996 0.801972 -0.352875 
0.206070 -0.915233 0.014541 0.171731 -0.869544 -0.463036 
-0.738287 0.635342 0.273513 -0.122287 0.991943 -0.033082 
0.280673 0.754825 0.568431 0.105329 0.899514 0.424005 
0.385574 0.160989 0.951068 0.407304 0.178683 0.895643 
-0.583854 0.256968 0.771551 -0.728405 0.323854 0.603776 
-0.509658 0.607478 0.534114 -0.796892 0.599763 -0.072444 
0.116330 0.207753 0.959940 0.150450 0.007380 0.988590 
0.372518 -0.579424 -0.753994 0.581726 -0.604444 -0.544282 
-0.287743 0.819060 -0.457222 -0.117065 0.933443 -0.339087 
0.222380 0.302111 0.853406 0.652948 0.132849 0.745660 
-0.815478 0.300743 0.691969 -0.644089 0.185136 0.742209 
-0.348286 -0.083906 0.930088 -0.400231 -0.297676 0.866720 
-0.049727 -0.466983 -0.984856 0.096518 -0.339978 -0.935467 
-0.365767 0.847655 -0.480164 -0.300756 0.803929 -0.513072 
-0.363121 -0.651217 -0.709915 -0.454976 -0.467676 -0.757810 
-0.457280 -0.651138 -0.751252 -0.463294 -0.699067 -0.544669 
-0.391329 -0.692574 -0.505232 -0.967621 0.243778 0.065442 
-0.571815 0.779301 -0.069657 -0.705944 0.705841 -0.058578 
-0.574816 -0.463577 0.697263 -0.387553 -0.817411 0.426194 
-0.777804 0.698831 0.149920 -0.852049 0.475448 0.219002 
0.348204 0.676772 0.630652 0.682272 0.690434 0.240428 
0.149722 -0.589535 0.630565 0.382728 -0.914380 0.132016 
-0.636096 0.432119 -0.664664 -0.518688 0.718691 -0.463083 
0.851588 -0.477886 -0.412373 0.817628 -0.421329 -0.392386 
0.691626 -0.760717 -0.080760 0.978264 -0.201780 0.047788 
-0.687883 0.522850 0.363327 -0.625247 0.657004 0.421202 
0.243983 0.902928 -0.186452 0.143363 0.904900 -0.400753 
0.607850 0.718598 0.331422 0.193329 0.401988 -0.895003 
-0.563690 -0.640033 0.634073 -0.509100 -0.722747 0.467390 
-0.663157 -0.670397 0.340578 -0.666637 -0.706246 0.238353 
-0.487740 0.510988 0.600111 -0.622809 0.340896 0.704201 
0.564136 0.626180 0.610373 0.409852 0.798786 0.440413 
0.137479 -0.991743 -0.266036 0.257701 -0.900131 -0.351219 
-0.678074 -0.127213 0.694801 -0.631087 -0.316400 0.708251 
0.188369 0.580018 -0.739750 0.482428 0.400014 -0.779264 
-0.238753 -0.912163 0.377371 0.723121 -0.481941 0.494802 
-0.512871 -0.545516 -0.653464 -0.218566 -0.454377 -0.863580 
0.851738 -0.502468 -0.272364 0.681600 -0.713904 -0.160507 
-0.438542 -0.594953 0.700798 0.617589 -0.782570 -0.078530 
0.846361 -0.159462 -0.345454 0.809543 -0.322364 -0.490634 
0.748073 0.577612 0.245260 0.544175 0.791400 0.278496 
-0.734216 0.563283 0.189121 -0.494514 0.776652 -0.390216 
0.040622 0.887819 0.254837 -0.074868 0.902429 0.424284 
-0.595285 -0.766748 -0.371648 -0.614025 -0.784276 -0.088798 
-0.765813 0.688815 -0.047413 -0.735618 0.677293 0.011885 
0.722167 -0.596215 -0.291483 0.751389 -0.602645 -0.268764 
-0.753057 -0.374431 -0.642837 -0.752967 -0.250740 -0.608416 
0.063931 -0.272720 0.884478 0.232215 -0.468615 0.852336 
-0.541301 0.476332 0.649408 -0.786427 0.559325 0.262085 
0.656694 0.632675 -0.518112 0.782421 0.616644 -0.086994 
-0.122101 0.219476 -0.968711 -0.170911 0.233798 -0.957146 
0.762084 0.503954 0.406497 0.682757 0.199733 0.702815 
-0.087419 0.627745 -0.828457 -0.288436 0.440030 -0.850399 
-0.452937 -0.247123 -0.897025 -0.088325 -0.236616 -0.967580 
0.011684 -0.947760 -0.495747 -0.086817 -0.968139 -0.234882 
0.619252 0.600917 -0.475881 0.025366 0.674313 -0.738010 
0.452480 0.334049 0.746658 0.409014 0.270396 0.871547 
0.596864 0.636694 -0.529828 -0.378375 0.496300 -0.781357 
-0.398734 0.485401 -0.654145 -0.481765 0.714556 -0.507259 
-0.771035 0.230587 -0.573995 -0.743312 0.572352 -0.346267 
0.478366 0.229660 0.893192 0.387297 0.192739 0.901583 
-0.684270 0.768379 -0.066114 -0.483451 0.382436 -0.787412 
-0.703826 0.391609 0.584980 -0.818905 0.324690 0.473257 
0.456990 0.487597 -0.690520 0.527892 0.785168 -0.323792 
-0.273146 0.637762 -0.663134 -0.257634 0.376960 -0.889677 
-0.256504 0.747312 -0.617024 -0.248638 0.760781 -0.599493 
-0.826356 -0.403452 0.577978 -0.380987 -0.422053 0.822630 
0.233822 -0.876972 0.660963 0.437490 -0.680477 0.587838 
-0.520424 -0.724881 -0.256282 -0.434167 -0.818235 -0.376816 
-0.448233 0.832512 0.314838 -0.544043 0.809020 0.222495 
0.768386 0.399245 -0.405486 0.708559 0.643985 -0.288492 
0.526235 0.841517 0.032004 0.249972 0.941628 0.225500 
-0.628837 -0.406204 0.609316 -0.772737 -0.176372 0.609730 
0.724443 0.763690 0.182008 0.793629 0.596092 0.121772 
-0.715725 0.077522 -0.762837 -0.471761 0.484541 -0.736656 
-0.786251 -0.297745 0.507357 -0.141807 -0.988094 0.059682 
-0.705584 -0.377518 0.588361 -0.482970 -0.865112 0.135357 
-0.250506 0.432815 -0.876274 -0.011032 0.595698 -0.803133 
0.434279 0.776848 -0.471177 0.648049 0.747243 0.147171 
0.019972 0.632473 0.818492 0.176972 0.694872 0.697018 
0.629747 0.545228 0.600106 0.841847 0.313931 0.439023 
0.466615 -0.884180 0.069993 -0.593805 -0.334284 0.731881 
-0.429180 0.668851 -0.477851 -0.547857 0.513736 -0.660249 
0.485500 -0.770500 0.561920 0.379368 -0.712293 0.590524 
0.783675 0.515565 -0.359585 0.761231 0.388328 0.519355 
0.571272 -0.257301 0.712000 0.595367 -0.462723 0.656830 
0.630114 -0.590703 -0.346551 0.965463 -0.260113 -0.014905 
0.540492 -0.747667 0.361782 0.648201 -0.725847 0.230180 
-0.733820 0.659500 -0.315868 -0.334263 0.885940 -0.321525 
-0.922894 0.295517 0.161196 -0.796040 0.441945 0.413528 
-0.530447 0.159722 0.883321 -0.529520 0.081177 0.844404 
-0.474580 -0.825793 0.248822 -0.606946 -0.652378 0.453894 
0.683769 0.370777 -0.697967 0.768614 0.153289 -0.621076 
-0.244110 -0.847075 -0.591737 0.125243 -0.564660 -0.815765 
0.582656 0.865213 -0.442342 0.447454 0.776527 -0.443612 
0.121275 0.691952 0.634434 0.694231 0.639278 0.330707 
0.134269 -0.734949 -0.768730 0.142574 -0.738610 -0.658884 
0.267171 0.764841 0.677467 0.259908 0.874229 0.410088 
0.798671 -0.211712 0.540003 0.717192 -0.203172 0.666601 
-0.141376 -0.631474 0.737512 0.309887 -0.636290 0.706473 
-0.500727 -0.187077 -0.927784 -0.402775 -0.209809 -0.890928 
-0.414107 1.022120 -0.053529 -0.505784 0.862512 -0.016002 
0.200871 0.339209 0.792461 0.065192 0.525486 0.848301 
0.729799 0.024139 -0.681880 0.950733 0.125571 -0.283441 
0.584316 0.378727 0.720860 0.209789 0.576761 0.789516 
-0.543223 -0.362708 -0.744399 -0.412008 -0.554554 -0.722993 
-0.339468 0.497370 -0.784442 -0.101016 0.798469 -0.593501 
0.178219 0.742724 -0.568933 0.249640 0.968293 0.009420 
-0.712145 0.683713 0.071944 -0.651758 0.750272 -0.110920 
-0.160875 -0.839596 -0.388753 -0.249848 -0.928620 -0.274302 
-0.587583 -0.529656 0.613309 -0.435074 -0.813520 0.385870 
0.446944 0.606149 0.514824 0.502508 0.836666 0.217891 
0.613684 0.170060 0.768270 0.392288 0.408431 0.824193 
-0.526911 0.727302 0.352767 -0.495604 0.690395 0.527003 
-0.025196 -0.871129 0.618951 0.284794 -0.786334 0.548244 
0.309811 0.782284 -0.535752 -0.083056 0.712595 -0.696642 
0.253201 0.282280 -0.947769 0.338182 0.927886 -0.157036 
-0.637714 0.605836 -0.535071 -0.960882 0.018988 -0.276307 
0.515014 0.417825 0.675596 0.410699 0.449604 0.793210 
0.134506 0.881343 0.411986 0.139800 0.754186 0.641607 
-0.633562 0.021138 0.757289 -0.657624 -0.123651 0.743129 
0.176360 -0.844776 -0.566426 0.192377 -0.887094 -0.419590 
0.146624 -0.432977 -0.951945 0.071831 -0.364614 -0.928384 
-0.247968 -0.172071 0.936895 -0.407675 -0.219280 0.886407 
-0.734739 -0.188290 -0.640128 -0.598266 -0.207089 -0.774075 
-0.913470 -0.303310 -0.309474 -0.850021 -0.307807 -0.427457 
0.116958 0.644259 0.708660 0.121078 0.801557 0.585531 
0.616957 0.004412 0.825798 0.522440 -0.376800 0.764904 
0.483334 -0.771015 -0.397710 0.758204 -0.509569 -0.406776 
0.291431 0.643136 0.735578 0.716801 0.521048 -0.463364 
-0.556112 -0.737827 -0.130950 -0.676569 -0.695923 -0.240718 
-0.871294 -0.501266 -0.123473 -0.832141 -0.532590 -0.154564 
0.147886 0.597909 -0.852794 0.024474 0.487806 -0.872609 
0.543714 0.845949 -0.310418 0.257100 0.936047 -0.240240 
0.404788 0.570178 -0.681466 0.119542 0.088689 -0.988860 
0.670227 0.582474 -0.489057 0.707364 0.551200 -0.442510 
0.857508 -0.267027 -0.452384 0.800054 0.509095 -0.317389 
-0.500852 0.647900 -0.503647 -0.409676 0.664277 -0.625221 
-0.503068 -0.094946 -0.894412 -0.308915 0.153485 -0.938623 
0.005036 -0.653100 -0.728328 -0.588414 0.155115 -0.793542 
0.546160 -0.422340 0.814617 0.540043 -0.230608 0.809428 
-0.029210 -0.486790 -0.953440 0.100578 -0.467045 -0.878495 
0.480457 -0.651170 0.613100 0.656269 -0.473348 0.587583 
0.801993 -0.709917 0.202380 0.490147 -0.800765 0.344284 
0.261492 0.131080 0.873748 0.103970 0.002442 0.994577 
0.668865 -0.740674 -0.024721 0.492954 -0.837312 0.236444 
0.582121 0.559434 0.549979 0.676239 0.025891 0.736227 
0.682434 -0.417455 -0.477675 0.544928 -0.468889 -0.695124 
0.012009 -0.026364 0.982581 -0.128657 -0.121475 0.984221 
0.176031 0.282445 0.985653 0.165428 0.132125 0.977331 
-0.795496 -0.593573 0.252512 -0.227993 0.670642 -0.705874 
0.239622 -0.111580 -1.013360 0.059687 0.048999 -0.997014 
-0.567882 0.852790 0.051684 0.252193 0.767288 0.589634 
-0.901695 0.446746 -0.283842 -0.974461 -0.198033 -0.105873 
-0.783731 0.161420 -0.650244 -0.802681 0.023890 -0.595930 
0.307395 0.453627 -0.669663 0.179975 0.637571 -0.749074 
-0.380936 0.697486 0.593661 -0.401166 0.762671 0.507345 
-0.282700 0.497981 0.715824 -0.564743 0.350979 0.746913 
0.702828 -0.586602 0.524209 0.832841 -0.254317 0.491629 
-0.714518 -0.701635 0.156615 -0.824388 -0.549726 0.134856 
-0.708255 0.696202 -0.389623 -0.799493 0.332885 -0.499998 
-0.852283 0.381284 -0.241971 -0.810872 0.516919 -0.274375 
0.599918 -0.593582 0.603011 0.253561 -0.209639 0.944330 
-0.707746 -0.567060 -0.469613 0.172036 -0.938636 -0.298943 
0.100638 -0.867000 0.216433 0.009942 -0.951970 0.306029 
0.704651 0.184204 -0.612433 0.771376 0.024847 -0.635894 
0.285841 0.365775 0.820590 0.262619 0.126071 0.956628 
0.716795 -0.483290 0.530929 0.783258 -0.034536 0.620736 
0.876714 -0.122644 -0.571347 0.906867 -0.044517 -0.419060 
0.002470 0.975157 -0.003303 -0.213454 0.975263 -0.057436 
-0.248564 0.832343 0.321945 -0.283990 0.729128 0.622673 
-0.651330 0.678828 -0.186614 -0.673657 0.666628 0.319052 
0.623617 -0.138877 0.665854 0.555169 -0.246975 0.794223 
0.227687 0.850973 -0.402224 0.179273 0.974051 0.138150 
-0.623656 -0.679815 -0.048914 -0.570060 -0.797762 -0.196485 
0.385507 -0.405900 0.842303 0.126437 -0.550205 0.825402 
-0.778610 -0.574017 -0.390004 -0.604917 -0.796287 -0.001940 
0.445261 0.173744 -0.833427 -0.082062 -0.008074 -0.996594 
0.181155 -0.547733 -0.750099 0.507133 -0.544074 -0.668430 
-0.636874 0.521681 -0.594426 -0.763693 0.587295 -0.268065 
0.857128 -0.024944 -0.181577 0.986226 0.120958 0.112818 
0.663386 -0.746807 -0.062909 0.239424 -0.914983 -0.324781 
-0.745806 0.513862 0.408279 -0.734523 0.624663 0.265087 
-0.455792 -0.527730 0.681844 -0.496666 -0.530211 0.687168 
0.491170 -0.391023 -0.716861 0.628579 -0.226883 -0.743917 
-0.979743 -0.192928 -0.075689 -0.971966 -0.233851 0.024411 
0.758792 0.139007 -0.776419 0.643859 -0.035216 -0.764333 
0.066037 -0.781228 -0.536239 0.215594 -0.665356 -0.714717 
0.437160 0.742903 -0.542919 -0.143565 0.462208 -0.875073 
-0.700074 -0.199744 0.661124 -0.795365 -0.176394 0.579896 
0.116742 -1.024730 -0.241264 0.176436 -0.951235 -0.253027 
-0.499696 0.759397 0.169310 -0.630778 0.744915 0.217305 
0.323589 -0.925774 0.456060 0.496848 -0.847847 0.185198 
-0.759656 0.622588 -0.251698 -0.269732 0.832135 -0.484557 
0.623606 -0.098279 0.745624 0.537952 -0.096953 0.837381 
-0.725617 -0.001509 0.616545 -0.258991 0.611381 0.747755 
-0.419281 0.410661 0.845245 -0.272076 0.558909 0.783323 
0.236019 -0.695988 -0.572140 0.395183 -0.574603 -0.716702 
0.560851 0.716767 0.459708 0.649764 0.752438 0.107909 
0.516490 -0.747579 0.484728 0.377414 -0.735636 0.562493 
0.263780 0.552043 -0.662896 0.108423 0.670140 -0.734273 
1.003350 0.119635 0.127314 0.992872 -0.104963 0.056465 
0.279403 -0.984452 0.360741 0.249567 -0.950159 0.186854 
-0.743785 -0.026109 -0.663817 -0.918994 -0.378721 -0.109643 
-0.747936 0.463761 -0.485315 -0.623411 0.706414 -0.335168 
-0.923507 -0.037016 0.513467 -0.890657 0.176198 0.419147 
-0.712310 0.545684 -0.502347 -0.710016 0.701088 -0.065974 
0.885850 -0.466625 -0.109681 0.692463 -0.595973 0.406584 
-0.069017 0.153241 -1.004970 -0.322461 0.164576 -0.932166 
0.843752 0.464801 -0.114997 0.993213 -0.103521 0.053027 
-0.654326 -0.704804 -0.151446 -0.362586 -0.884545 0.293447 
0.134353 -0.551053 -0.734499 0.198923 -0.633222 -0.747970 
-0.422800 0.647579 -0.440671 -0.599077 0.662920 -0.449047 
-0.400551 -0.420756 0.921722 0.203534 -0.860773 0.466524 
-0.181818 -0.862122 0.483968 0.432364 -0.899151 -0.067736 
0.889844 0.554783 0.237329 0.831326 0.461178 0.310179 
-0.803000 -0.316340 0.542206 -0.508281 -0.826102 0.243322 
0.136252 -0.916657 -0.419160 0.075406 -0.859544 -0.505467 
0.863071 0.222748 -0.442445 0.588374 0.543346 -0.598825 
-0.948615 0.182048 0.427675 -0.713013 0.137240 0.687588 
0.390664 0.324121 -0.893048 0.006489 0.176456 -0.984287 
-0.376917 0.933262 -0.368442 -0.018326 0.950619 -0.309820 
0.525242 0.456141 -0.810116 0.589104 0.323020 -0.740685 
-0.331018 0.573590 -0.730800 -0.876405 -0.438040 0.200089 
-0.448443 0.895107 -0.040899 -0.213869 0.918311 -0.333115 
0.581552 -0.491412 -0.581659 0.810610 -0.379241 -0.446193 
0.776185 -0.359319 0.406079 0.999986 -0.002594 -0.004596 
0.386832 -0.550818 0.573047 0.650416 -0.446088 0.614789 
0.340694 -0.701364 -0.676156 0.455817 -0.050967 -0.888613 
-0.695258 0.628626 -0.352904 -0.543109 0.839361 -0.022486 
0.486090 0.516221 -0.614598 0.417691 0.601759 -0.680750 
0.187684 0.834261 -0.577464 0.459742 0.702368 -0.543430 
0.758591 0.757998 -0.106637 0.852325 0.054942 -0.520118 
0.353347 0.322213 -0.879311 0.281026 0.389711 -0.877012 
0.042729 0.709598 -0.634183 -0.096505 0.829274 -0.550447 
-0.774510 0.266954 -0.701624 -0.872570 0.357273 -0.333133 
0.398252 0.631691 -0.774341 0.238732 0.683837 -0.689473 
-0.245965 -0.949846 -0.417808 -0.333258 -0.804964 -0.490890 
0.124229 0.029611 1.040770 -0.438382 -0.359999 0.823542 
0.624773 -0.246955 0.812604 0.560219 -0.231433 0.795357 
-0.442727 -0.583424 0.679705 -0.416863 -0.490776 0.765091 
-0.887546 -0.340807 -0.303897 -0.670305 -0.309415 -0.674502 
0.821544 0.518585 0.004401 0.545830 0.837521 -0.025048 
-0.191485 0.854015 0.573441 -0.175813 0.812149 0.556331 
-0.546510 -0.600652 0.659493 -0.507998 -0.488096 0.709719 
0.047249 -0.007482 0.983410 0.066799 0.332839 0.940615 
0.578470 -0.309150 0.731135 -0.723766 0.151045 0.673312 
0.199737 1.037600 0.201633 0.104189 0.960305 0.258763 
0.756052 0.312922 -0.556671 0.799889 0.493877 -0.340974 
0.264319 -0.724186 0.625068 -0.256693 -0.613226 0.747036 
0.894223 0.014305 0.350179 0.963241 0.166416 0.210885 
-0.335446 -0.737317 0.659298 -0.411870 -0.734733 0.539009 
0.919304 -0.449604 0.086622 0.948419 -0.316094 -0.024222 
0.347618 -0.853746 -0.152910 0.366123 -0.805804 -0.465439 
-0.523511 -0.210120 0.916436 -0.506336 -0.063272 0.860012 
0.611260 0.002090 0.738152 0.739248 -0.071448 0.669633 
-0.400205 0.615482 -0.600459 -0.589590 0.729968 -0.345731 
0.873100 -0.504032 0.207693 0.770833 -0.597530 -0.220849 
0.465708 0.320781 -0.896635 0.560110 0.290540 -0.775798 
0.833981 0.271694 0.544874 0.763742 0.167479 0.623417 
-0.581001 0.723377 -0.387249 -0.809793 0.540892 -0.227312 
-0.646236 -0.536130 -0.752025 -0.608971 -0.391262 -0.689977 
0.689971 0.707295 -0.164835 0.124584 0.944716 -0.303298 
0.915278 -0.466643 0.285762 0.897811 -0.352635 0.263787 
0.610956 -0.781272 0.326407 0.554217 -0.729479 0.400878 
0.054265 -0.747291 0.704793 0.033689 -0.669642 0.741920 
-0.629270 0.751674 0.439017 -0.628550 0.697188 0.344751 
-0.345272 0.798106 -0.297965 -0.326388 0.750127 -0.575136 
0.237390 -0.235695 -0.904683 -0.032709 -0.086887 -0.995681 
-0.694050 0.153900 -0.712637 -0.686791 0.299294 -0.662376 
0.615403 -0.668741 -0.383974 0.543516 -0.807482 -0.229265 
0.371560 0.538927 0.726692 0.710432 0.606658 0.356725 
0.950104 -0.066832 0.250812 0.937793 -0.003415 0.347179 
-0.389038 -0.617000 0.585357 -0.245160 -0.737109 0.629736 
0.719402 -0.403907 -0.579053 0.665878 -0.580214 -0.468997 
-0.335183 -0.732288 -0.631798 -0.342816 -0.835448 -0.429539 
0.816732 0.471521 -0.449420 0.888018 0.377356 -0.262730 
-0.508633 -0.473911 -0.635523 -0.716166 -0.601833 -0.353416 
0.672244 -0.633801 0.262856 0.484459 -0.390857 0.782643 
-0.909173 0.207453 0.268447 -0.875448 0.313358 0.367964 
0.503628 -0.626199 0.466639 0.513128 -0.720233 0.466867 
0.635829 -0.612054 0.273263 0.587074 -0.555889 0.588499 
0.888637 -0.021521 0.482531 0.857211 0.117312 0.501425 
0.883232 -0.377788 0.233621 0.894195 -0.176343 0.411482 
-0.536394 0.733812 0.328694 -0.567355 0.608690 0.554622 
0.613853 -0.688004 0.531288 -0.274502 -0.022069 0.961333 
0.855704 -0.674601 0.134694 0.793056 -0.595373 0.128813 
0.067276 -0.507661 0.820805 -0.022274 -0.699476 0.714309 
0.045914 0.541678 -0.730772 0.097568 0.374189 -0.922206 
0.589555 0.479732 0.827493 0.393901 0.576360 0.715997 
0.879328 0.079967 -0.527471 0.797467 0.206467 -0.566937 
0.650273 0.575240 0.450606 0.598819 0.704833 0.380298 
0.466306 -0.020150 -0.914674 0.305093 -0.035312 -0.951668 
0.420007 -0.504864 0.652982 0.368357 -0.898590 0.238432 
0.464033 -0.627004 -0.593965 0.509854 -0.560178 -0.652878 
-0.717029 0.059150 -0.637168 -0.810076 -0.392477 -0.435589 
0.069564 0.110566 1.050980 0.145142 0.241120 0.959580 
-0.051117 -0.644359 -0.842170 0.062553 -0.459819 -0.885807 
-0.234629 0.483208 0.760729 0.065812 0.420435 0.904933 
0.232227 -0.761539 -0.686046 0.447137 -0.720188 -0.530470 
-0.635905 0.729845 0.048572 -0.447256 0.834313 0.322310 
-0.549471 0.725264 0.227348 -0.571066 0.819088 0.054575 
0.382345 0.721253 0.657742 -0.606638 0.790288 0.086231 
0.742115 0.695288 0.059467 0.912228 0.103401 -0.396420 
0.552536 -0.330506 -0.693242 0.762640 -0.188112 -0.618864 
0.643125 -0.586101 -0.290394 0.662250 -0.724243 -0.192088 
0.488090 -0.567650 0.581112 -0.979388 -0.142233 0.143419 
0.099611 0.149225 -1.063640 0.261706 0.211530 -0.941682 
0.672903 0.437009 0.653717 0.937906 0.174416 -0.299851 
-0.911808 -0.454515 0.209001 -0.613817 -0.751010 0.243336 
0.712830 0.593293 0.596168 0.693332 0.598543 0.401294 
0.453036 -0.427785 0.840848 0.579242 -0.583622 0.569091 
0.591024 0.810826 0.158882 0.250788 0.810163 0.529849 
-0.206222 0.690332 -0.610911 0.079086 0.634332 -0.769005 
0.454977 -0.454509 0.773005 0.516305 -0.697628 0.496734 
0.449168 0.916255 -0.060429 0.584464 0.780351 -0.222383 
-0.684745 -0.653067 0.334011 -0.540144 -0.839324 -0.061487 
0.639600 -0.569167 -0.516460 0.482257 -0.679038 -0.553476 
0.665860 0.549939 0.664427 0.515563 0.291999 0.805562 
-0.288608 -0.470793 0.840897 -0.363160 -0.078223 0.928437 
0.613908 -0.032316 0.747671 0.818717 -0.149015 0.554523 
0.303305 0.484212 0.735572 0.148438 0.175049 0.973306 
0.621123 0.397632 0.643118 0.228827 -0.028407 0.973053 
0.631337 0.936544 0.026958 0.633203 0.773452 -0.028740 
-0.720671 0.528219 0.058050 -0.825332 0.514049 0.233626 
-0.410262 -0.615150 -0.679486 -0.360405 -0.421689 -0.832038 
0.586744 0.729960 0.350158 0.718498 -0.274525 0.639059 
0.572598 -0.301219 0.722964 -0.445941 0.436187 0.781586 
0.640539 0.314330 -0.864463 0.601214 0.055139 -0.797183 
-0.604241 -0.325107 0.573851 -0.619432 0.055944 0.783054 
-0.880659 -0.372753 0.400283 -0.788188 -0.223364 0.573470 
-0.016981 0.909269 0.532652 -0.042642 0.878161 0.476461 
