21.329512 -17.103914 -979.061707 
5.525648 57.689991 -957.092041 
-20.317343 3.126872 -1006.481934 
-22.693087 -0.218555 -997.351379 
-25.329103 -3.403930 -987.995972 
-29.492235 -3.842920 -981.772400 
-30.615799 -3.647735 -980.808533 
-32.674530 -4.199358 -976.097290 
2.182688 55.365871 -967.104858 
-20.311176 -14.149321 -958.372192 
-14.481190 4.520888 -1017.113281 
-15.498778 4.423412 -1014.749207 
-28.774218 -28.628908 -957.884460 
3.282905 54.860336 -965.424194 
-22.372650 -0.111705 -998.666260 
10.069185 21.691294 -982.205566 
-8.443533 5.000237 -1026.678833 
1.011647 45.468517 -935.067566 
-25.558029 -5.451472 -984.183044 
6.145053 58.440662 -955.068787 
-20.579420 -30.604317 -951.954102 
-15.789022 3.788277 -1014.280701 
-18.651787 4.635012 -1012.266113 
-21.959114 1.365440 -1002.247131 
-22.331013 0.162915 -999.979980 
1.055379 41.453251 -976.354553 
14.098536 52.224525 -952.479187 
-4.503397 43.728683 -977.129395 
-32.694431 -7.651143 -971.123901 
4.979017 58.019135 -958.916260 
-28.912607 42.201702 -955.072510 
-14.158498 4.063229 -1018.237061 
5.782548 57.439949 -951.790344 
-19.226213 3.791354 -1009.051636 
-23.024137 20.237827 -980.361328 
-25.540630 -6.291771 -983.941101 
-23.538019 -10.647684 -999.127075 
-32.916832 -5.560321 -975.126160 
-32.993092 -6.739708 -973.044006 
5.151792 58.639481 -959.925781 
1.913433 48.341621 -976.126099 
8.910806 -27.124554 -1004.878540 
-14.982308 -29.153660 -1008.878113 
-25.007532 -5.791572 -985.610291 
2.904018 52.899296 -945.490479 
-2.942191 -14.088962 -941.166931 
-31.299294 -10.983139 -968.123352 
0.186381 44.948776 -934.222229 
-30.524096 -13.313875 -964.955688 
-15.990074 3.661526 -1015.898926 
-29.367512 42.447128 -953.407227 
0.008069 13.585688 -1003.728821 
-1.569377 -14.065593 -941.068848 
-21.922871 1.888273 -1004.225403 
-22.589691 -1.347615 -998.883667 
-24.375603 -2.848899 -992.442688 
-31.304695 -4.860789 -980.379822 
-18.665850 3.503164 -1011.470215 
-22.853510 0.315179 -1001.095764 
-27.841234 -28.673424 -956.756348 
-28.958515 43.401062 -954.772217 
-32.388683 -9.470059 -971.047974 
-31.242998 -11.472541 -968.398315 
5.359621 58.476692 -952.461548 
-8.785832 3.362325 -1025.341187 
-15.677549 3.207037 -1017.037537 
4.944877 56.756813 -950.413635 
-21.694605 2.063146 -1006.444824 
3.506407 54.240215 -946.986633 
-30.194033 -5.314167 -982.083008 
0.631191 55.444695 -967.244446 
-27.255043 46.926651 -962.342957 
-16.755854 2.779448 -1014.605103 
-24.832857 -6.074059 -987.459900 
-2.593011 23.150723 -989.150574 
-29.928591 -17.013649 -961.123962 
10.534800 22.487246 -982.509766 
-28.981552 43.058514 -950.819275 
-25.531338 -9.635635 -999.035156 
-23.254694 -1.366025 -999.516968 
-12.224688 46.508789 -975.747681 
-30.652542 -14.227423 -965.894897 
-8.657959 2.876145 -1026.871704 
-11.050961 2.502120 -1022.403137 
17.832504 46.625423 -956.422302 
3.526676 58.891083 -960.395874 
-24.240164 -4.536723 -992.588135 
-15.724524 36.856819 -976.694214 
5.068081 58.166649 -951.519104 
18.363964 48.017525 -958.814209 
22.572615 -27.399326 -976.827698 
-29.159693 43.265011 -953.568359 
-32.094261 -6.557710 -977.924561 
-24.203129 31.853540 -945.781738 
4.416035 16.539635 -1002.942017 
3.582962 58.674255 -959.397888 
4.986400 30.937077 -931.936096 
-29.597219 -6.573521 -982.785156 
-32.288506 -7.503406 -976.331177 
-32.885197 -7.950089 -974.664612 
3.638222 55.562954 -948.105591 
1.428571 52.305630 -944.478333 
-31.928291 -21.700945 -973.899536 
4.079248 59.028015 -954.787842 
-31.215330 -6.309762 -980.734192 
-31.812061 -6.484319 -979.569458 
3.389164 56.161465 -948.688904 
1.079004 52.570995 -944.709778 
-26.942156 47.513767 -962.272705 
-11.348568 1.961617 -1023.849976 
-0.471099 55.349499 -967.788452 
7.842584 49.579033 -969.612732 
-20.949490 1.884287 -1009.095337 
4.126860 58.892384 -952.662170 
-24.209690 -8.050900 -986.972534 
-32.810440 -8.931892 -973.653748 
-22.821167 44.800159 -971.090271 
-11.515035 0.360404 -1018.964478 
-21.406874 2.041623 -1007.983032 
-23.259270 -4.640603 -995.675598 
2.494933 56.987320 -958.228455 
-30.655813 -6.784636 -981.535950 
-32.293228 -8.195551 -976.709412 
-30.946743 -17.940920 -976.172058 
-30.535648 -14.046440 -968.478088 
10.694565 -34.500118 -1001.410645 
-0.348126 55.381062 -965.593079 
-19.419409 2.328115 -1014.016418 
-22.626343 -4.820022 -997.662048 
-32.420246 -7.322765 -978.901306 
-2.047373 44.207748 -933.224976 
-7.069415 48.780457 -975.410889 
-25.554665 -28.256691 -955.553894 
2.955789 56.762001 -949.614075 
-30.173759 -15.375720 -967.532043 
0.479419 52.666702 -944.178101 
-9.139329 1.477334 -1026.112671 
-23.347822 50.447079 -967.091003 
-19.507221 1.733290 -1013.052490 
-24.372717 1.167963 -1005.212158 
-24.755392 0.011245 -1001.978455 
-22.647503 -5.246099 -997.901917 
-17.535965 -45.578854 -958.445557 
-31.202633 -13.118665 -971.767639 
-31.106455 -13.951026 -970.714539 
-30.449045 -15.000938 -968.636597 
-30.441984 -18.901356 -961.975037 
-12.307343 -0.243216 -1019.121277 
-24.833687 50.952950 -966.131470 
-21.976484 50.813541 -967.830750 
-17.341860 1.619637 -1016.800110 
-24.990604 0.796296 -1004.121399 
1.697159 58.249393 -958.871338 
-31.974436 -33.333111 -1002.286865 
-30.182350 -8.085371 -982.236206 
-19.904547 -1.510409 -1021.369141 
-9.013639 1.798870 -1028.692627 
-17.019400 -46.792648 -954.847168 
0.277508 51.165726 -941.069946 
-23.804745 -8.481472 -990.266113 
0.410171 50.116962 -938.825134 
-13.975846 -28.385201 -1008.392944 
-17.692974 1.088641 -1015.912231 
-20.209642 1.272166 -1013.389648 
-25.342825 -47.683044 -948.730774 
-17.451988 -47.686363 -954.049988 
-30.614765 -18.213110 -964.136841 
-18.842674 -26.081480 -973.486145 
2.981825 56.305229 -947.546814 
-25.374687 -1.488006 -1000.241760 
1.317692 56.990723 -957.734680 
-24.413057 1.153625 -1008.095520 
-23.637651 -7.650355 -993.398560 
-25.313246 49.873383 -956.060303 
-30.258272 -17.522608 -967.508179 
-0.043240 51.628838 -942.475830 
-30.074570 -17.932520 -966.122620 
-8.904366 1.266106 -1029.373291 
-31.013077 -14.510606 -973.160767 
-9.086224 -1.454509 -1025.022095 
-26.157917 0.032310 -1003.565796 
-31.636063 -8.388247 -981.576416 
-30.122255 -18.315960 -966.457886 
-4.083113 18.379107 -997.282776 
-9.497643 -1.009738 -1026.777466 
-2.210034 55.769047 -966.825012 
2.281714 59.120766 -953.418701 
-31.297043 -15.765767 -970.505188 
-31.114634 -16.636690 -969.384827 
-30.307575 -21.046110 -961.276245 
-0.319953 52.376179 -943.643188 
-9.136459 -1.010789 -1027.597412 
-26.002035 0.643433 -1007.683655 
-26.602676 0.368765 -1005.927551 
-29.032841 -7.021151 -1000.706543 
-26.029667 -2.855872 -999.727112 
-23.270462 -9.820129 -992.912231 
-8.588285 48.417110 -975.260315 
-24.684084 1.812898 -1011.811829 
-23.037764 -8.437865 -995.861816 
-0.126231 5.393399 -1018.537231 
13.514184 52.354664 -954.909912 
-30.543110 -21.613430 -962.530396 
-21.758387 -24.121477 -974.955139 
-29.369780 43.987747 -952.379578 
-28.137947 -19.103287 -977.119751 
-18.429239 0.406648 -1018.279419 
-26.264675 48.690014 -961.316895 
-11.521737 -28.384811 -1005.920837 
-5.303814 -15.278835 -943.193909 
-27.132681 -1.220565 -1002.644531 
-22.629786 -34.233814 -976.187927 
-19.016779 30.831463 -934.279297 
2.018122 58.866482 -952.064941 
-31.793850 -12.859610 -977.700806 
-30.914059 -16.598734 -972.419067 
1.601321 56.818104 -947.270142 
1.287878 55.893154 -945.931519 
-25.500244 1.694144 -1011.406311 
-27.102383 -2.675727 -1000.911682 
-19.709951 -35.137775 -973.672424 
-6.019941 41.375381 -931.947449 
-31.291731 -19.147589 -968.583923 
2.312892 44.375759 -977.026733 
-22.846550 -11.342426 -992.221863 
2.023182 57.278919 -948.503723 
-18.872540 0.093403 -1019.197693 
-26.193424 0.803622 -1009.273254 
2.219881 2.536898 -1020.508789 
-27.563179 -27.262300 -957.137024 
-22.984133 -10.927776 -994.367920 
-31.228064 -17.260653 -971.278381 
-4.093084 44.835121 -934.206543 
-9.271893 -0.714007 -1030.039917 
-2.026509 -15.284125 -940.978149 
-27.874830 -0.433359 -1006.203125 
-19.915173 -34.415035 -973.045715 
-24.456942 -15.653941 -957.546936 
1.526528 58.015846 -950.314880 
-21.271843 -21.468346 -976.063354 
-30.402815 -23.163118 -963.418701 
-26.426003 1.556135 -1012.357971 
15.513316 46.581856 -948.004211 
-28.067757 -3.124228 -1001.706299 
-31.591911 -27.814281 -1020.173950 
-31.389200 -18.862936 -970.152161 
-30.553947 -22.866938 -964.280579 
-24.627626 1.570230 -1015.103455 
-25.676834 1.722775 -1013.739807 
-1.002481 57.721897 -962.404480 
-31.308464 -21.243734 -967.103699 
-0.341834 57.797970 -958.168335 
-9.054266 -1.669527 -1031.022095 
-20.166422 -0.161376 -1018.794373 
-27.921850 -6.834566 -999.721008 
-31.540808 -19.273266 -970.480347 
-0.250182 58.133587 -958.951904 
-22.210253 -25.742363 -955.949402 
-27.906990 -0.170442 -1008.761597 
-27.420773 45.010334 -950.105225 
-28.701714 -2.699694 -1003.375366 
-22.583065 -11.314551 -997.655396 
-27.252502 10.137775 -965.668640 
-30.932312 -31.149040 -1018.804077 
-24.481153 1.017873 -1017.260193 
-27.906551 0.511164 -1011.448486 
-28.816008 -1.913683 -1005.121765 
14.770927 42.167118 -944.132080 
1.317543 4.710224 -1021.390442 
-0.007692 55.924946 -945.680115 
-31.415680 -22.178377 -967.506714 
-26.999756 -6.534071 -999.207458 
-26.417086 1.422910 -1014.902100 
-28.378773 -4.833015 -1000.783020 
1.571884 2.315038 -1020.911255 
-12.847447 -1.873645 -1029.048950 
-27.565037 0.990664 -1012.880310 
-0.519536 58.379036 -960.890869 
-28.770403 -0.912640 -1008.045166 
-0.404235 57.717266 -957.236633 
-31.182283 -21.953558 -968.938599 
0.634630 57.300613 -947.856079 
-26.909317 1.279066 -1014.727295 
-29.044346 -4.247103 -1002.358582 
-31.935196 -19.198318 -973.802246 
-32.268864 -20.121176 -971.507324 
-1.683217 52.037224 -940.609680 
-0.488885 58.438786 -959.926575 
12.420991 -9.878657 -951.045959 
-24.004829 0.343471 -1019.157104 
-25.808401 0.875772 -1017.304626 
17.167763 -16.756903 -959.745483 
-14.575392 -1.640863 -1029.042114 
-29.554775 -3.532166 -1004.507385 
-22.515083 -13.622788 -997.185852 
21.756584 -36.008831 -974.009949 
-30.985519 -25.653366 -964.854248 
-15.400709 -1.759315 -1027.314819 
-28.693720 -0.059230 -1012.450256 
-29.609230 -2.083434 -1007.647095 
-12.751515 15.836896 -1001.564758 
-15.781483 -1.719756 -1028.431641 
7.388792 12.435009 -1003.838135 
-28.039408 0.508036 -1014.885071 
-29.372473 -5.710186 -1001.783203 
-30.570845 -26.945820 -963.524902 
-27.359383 0.513784 -1016.559204 
-23.701235 47.872917 -945.033020 
-2.142024 53.307842 -943.385681 
19.722834 -0.761776 -1002.509644 
-2.180360 52.701450 -942.105042 
-31.139393 -24.780819 -967.247986 
-30.207113 -40.508003 -960.738464 
-22.627283 -14.378037 -998.183716 
-13.929360 13.665754 -1002.852295 
-23.212406 50.250629 -944.051697 
-28.909010 -0.401021 -1014.015076 
-29.293226 -0.883134 -1012.329956 
-30.028173 -3.144580 -1006.829895 
-16.641716 -2.000356 -1028.315308 
8.982494 44.628277 -974.019470 
-16.590794 -2.495126 -1026.837158 
-26.416027 -0.067323 -1019.032166 
0.397107 40.384689 -978.149109 
-1.379187 58.351532 -957.772095 
-29.898104 -6.045264 -1002.767029 
-16.476082 -2.035820 -1030.301392 
-26.843931 -0.296459 -1018.923340 
-28.472719 -0.330342 -1015.926514 
-30.341427 -3.244306 -1008.444580 
-17.995886 -43.941193 -958.826172 
-29.585047 -1.610495 -1013.744568 
15.827960 -16.550068 -959.806824 
-3.426247 50.908352 -938.259338 
-25.576355 -0.638526 -1021.004089 
-1.655369 58.823437 -959.063354 
-29.931917 -31.223797 -1020.241455 
-17.275734 -2.206698 -1030.262451 
-17.663301 -2.960047 -1027.249512 
-24.933430 49.317429 -944.191345 
-30.311140 -2.971453 -1010.278503 
-0.240089 41.682690 -976.157471 
-31.046164 -26.880964 -967.139343 
-30.906395 -46.312679 -956.831421 
-2.197685 59.129089 -960.882813 
-30.946163 -29.837868 -964.669556 
-18.368921 -3.234192 -1027.954834 
-32.572651 -32.094875 -1014.543823 
-1.149843 58.499149 -953.052002 
-11.465022 -2.698341 -1024.354004 
-29.130890 -1.468894 -1015.875427 
-30.082016 -8.179353 -1002.181335 
-18.256592 -3.702287 -1026.995117 
-33.193367 -32.277008 -1012.960449 
-30.138464 -2.998178 -1013.337830 
-30.776609 -6.072647 -1006.011597 
-14.565522 59.301468 -961.413330 
-30.648375 -7.654280 -1003.908997 
-25.887003 -2.185063 -1021.271057 
-27.601431 -1.667328 -1019.357849 
-1.678633 58.234890 -955.308960 
-28.940662 -42.799652 -960.425293 
-18.593861 -3.153352 -1029.401001 
-1.209302 58.045238 -950.756287 
-1.227501 57.667934 -949.168396 
-27.238060 -5.162646 -999.630859 
-2.928602 51.804455 -939.505615 
-28.238972 -1.942071 -1018.736755 
-19.108389 -4.151176 -1028.634033 
-31.212421 -2.403756 -969.418579 
5.196138 -1.924383 -1022.167114 
-24.424654 -2.337934 -1023.897339 
-1.359888 58.449356 -951.677246 
-26.011745 -0.435653 -981.778809 
4.858617 -1.912578 -1021.345886 
-29.931070 -3.087252 -1015.190369 
22.219040 -33.544701 -974.550049 
-21.304520 -33.600651 -974.227539 
-29.442921 -2.895707 -1017.056213 
-3.338828 58.871033 -963.125916 
-30.126373 -43.985081 -956.522644 
-26.981302 -30.513559 -971.265137 
-31.224300 -6.408150 -1008.276367 
-23.848398 -3.405654 -1024.865479 
-30.244453 -10.567487 -1002.401978 
-31.256308 -8.209126 -1006.045898 
-28.312262 -30.874008 -971.287598 
-28.543592 -30.972029 -970.319336 
-31.134573 -5.837098 -1010.977234 
-29.047491 -34.194458 -964.569946 
-29.755713 -37.749481 -964.315491 
-31.214300 -9.190758 -1005.205017 
-26.558558 -31.615732 -973.799744 
-3.798439 53.582188 -943.040466 
-3.659520 53.116776 -942.199097 
-27.327095 -3.770492 -1021.408630 
-5.391361 59.464447 -963.703613 
-27.350218 -31.472439 -973.453918 
12.248847 35.779701 -980.046631 
-28.741264 -3.758745 -1019.497009 
-2.930140 58.522213 -956.427734 
-30.910404 -10.524953 -1003.918518 
-21.279079 -33.751938 -977.750122 
25.362152 -35.313755 -1001.181763 
15.825996 -29.695776 -1002.288208 
-25.890232 -36.486614 -966.267151 
4.255995 -1.960889 -1022.271118 
-23.855333 13.559018 -973.631592 
-2.056157 57.876404 -949.614563 
-27.274326 -36.717457 -965.140320 
-31.235327 -6.719805 -1012.393860 
-3.705205 52.309372 -940.215637 
-21.936436 -34.207264 -978.904358 
-26.145123 -37.431450 -966.450012 
-28.252117 -5.025486 -1020.942810 
4.055247 21.661795 -993.194580 
17.910583 46.096104 -957.203796 
-26.732178 -37.617573 -965.675476 
-26.721790 -37.970425 -965.975708 
-7.780110 45.277618 -934.815979 
-30.353251 -6.010102 -1017.090942 
-31.800247 -8.400707 -1010.828491 
-3.093135 59.155094 -955.167053 
18.658022 -16.953890 -959.966003 
11.603693 -24.065170 -1004.301208 
-31.836054 -8.928052 -1008.892517 
-18.291683 10.192766 -1000.870483 
-22.216576 45.023075 -969.416687 
-30.825748 -35.723049 -963.403564 
-28.349714 -37.455177 -964.650574 
-30.836042 -7.194249 -1015.812134 
-27.582111 -38.379993 -965.985229 
-28.950874 -6.070796 -1020.305054 
-29.873058 -6.277796 -1018.697937 
-31.917824 -9.066416 -1011.371826 
-26.201590 -37.233898 -969.976379 
-3.656619 59.630123 -960.698975 
-4.228615 58.433380 -956.958984 
-12.942595 56.769234 -963.347107 
-31.318361 -35.679169 -962.299438 
-18.154913 5.013516 -1012.829102 
-28.569958 -38.218014 -965.050659 
12.527691 55.191387 -953.244568 
19.902779 -45.018944 -959.992615 
22.001595 -23.101223 -977.966919 
-2.950026 59.437309 -953.475403 
-23.208941 -34.993397 -979.642639 
-29.040232 -32.396484 -976.014587 
-27.191730 -38.280220 -969.219055 
-4.782131 59.795849 -962.892334 
-31.180326 -13.998921 -1005.211609 
19.882748 16.495098 -971.074707 
-29.265354 -32.601643 -977.122253 
-14.228516 14.582488 -998.474976 
-31.583582 -13.118661 -1006.349304 
16.770227 54.726070 -950.752258 
-13.783137 -26.509565 -1006.895813 
-22.470978 -12.814981 -998.466125 
-30.602369 -8.784075 -1015.882629 
24.878014 -49.040173 -957.879028 
-29.370539 -38.692886 -966.179077 
-30.284811 -7.943367 -1018.318604 
-30.738449 -9.241667 -1015.703979 
-22.992260 -35.964420 -981.375549 
-3.246612 58.050560 -964.116516 
-31.913662 -9.687676 -1013.711365 
-11.261912 41.721058 -932.029419 
-12.957999 18.746918 -996.086304 
-27.990185 -38.569798 -969.482178 
-5.742809 52.039093 -939.661072 
-32.419468 -11.151746 -1011.096619 
-27.535419 -38.024414 -972.156677 
-26.633835 -9.053342 -1023.610291 
-29.834400 -8.561758 -1019.260620 
13.551630 53.917538 -952.092773 
-32.300716 -10.546194 -1013.412659 
-30.430229 -33.496101 -977.097778 
-30.427704 -9.933945 -1017.033569 
16.278076 -31.664618 -998.156921 
-0.677930 39.274620 -933.154236 
-27.699589 -9.599375 -1022.385254 
-5.889183 54.673962 -944.785828 
-32.344200 -13.380995 -1009.375977 
-31.995394 -14.319496 -1007.743896 
-30.198505 -32.751259 -963.621521 
-28.225626 -38.248119 -972.846863 
-28.598360 -38.950691 -971.505188 
-30.319048 -39.162506 -967.272766 
7.511563 -18.575100 -968.217163 
-5.802737 55.450413 -946.429138 
-31.731050 -15.429072 -1007.229553 
11.787605 -25.964468 -1006.094604 
-30.265421 -33.346401 -979.335693 
16.426579 -25.786203 -1007.547974 
0.466848 3.490631 -1020.463196 
-29.815880 -38.962059 -969.033936 
-30.130583 -10.662327 -1017.893738 
11.866407 44.216412 -974.869446 
9.180558 50.595703 -968.313965 
11.114728 -33.808632 -1004.248230 
-29.512424 -10.027864 -1019.624451 
-5.458795 59.786301 -960.380127 
-30.905039 -39.675030 -967.465393 
-30.606802 -33.708721 -979.385742 
-29.403666 -11.314932 -1019.063843 
-32.002274 -11.270288 -1015.947083 
-32.398281 -11.736444 -1014.816284 
15.534768 53.194206 -952.005920 
-22.977554 43.044395 -972.849731 
-30.487471 -39.300747 -969.368958 
-31.280542 -11.200241 -1017.274048 
19.732672 -47.624329 -956.462158 
15.037660 -23.784658 -959.324707 
-32.666927 -13.603702 -1011.566650 
-27.144575 -36.393944 -981.439758 
-6.153901 60.176926 -961.909912 
-30.511913 -36.487473 -976.142151 
-30.269150 -39.902054 -971.379883 
-31.154324 -39.956043 -969.029175 
-31.205301 -34.960072 -979.060791 
25.889168 -35.324329 -1004.310181 
-31.165373 -35.358612 -977.549316 
-11.259840 44.698532 -933.679321 
-18.705631 10.382239 -1000.518127 
-11.050095 54.699547 -967.481384 
-4.890976 59.572510 -951.717957 
-30.979593 -35.281624 -979.894165 
-18.128439 -17.340254 -958.444275 
-11.894719 54.582962 -968.485779 
-31.870298 -12.363647 -1017.259766 
-32.649521 -13.385559 -1014.689270 
-32.592186 -15.245614 -1011.282288 
-5.335073 60.176086 -954.121582 
-5.156191 60.062450 -953.134155 
-27.862423 -13.483751 -1021.131714 
8.152646 55.829922 -960.825806 
-32.112209 -16.705528 -1009.981018 
-31.324774 -36.970367 -976.501892 
-30.914312 -40.493126 -971.573547 
-25.344099 -13.211802 -1025.364014 
-25.087238 -5.224225 -998.710022 
22.128723 -45.950928 -957.858337 
-29.993565 -35.890850 -980.727173 
-7.456996 54.609509 -944.294128 
-28.129154 -13.881002 -1020.893799 
-22.220963 -14.829552 -1027.799072 
-32.150208 -13.280347 -1017.083618 
15.710775 -22.991390 -1008.151672 
-27.201590 -38.271290 -983.283325 
-31.068718 -38.343128 -975.076782 
-30.870155 -39.845524 -973.194336 
-22.364870 -14.682459 -1027.363159 
19.073259 -25.315966 -1010.766479 
-7.264057 56.105915 -947.442688 
-18.440416 -43.417171 -952.596069 
-28.932632 -37.025249 -981.606995 
-24.922569 -24.374949 -956.432007 
-32.202568 -36.907726 -978.566833 
-32.669765 -14.866971 -1014.726624 
19.175596 -23.366112 -1008.645569 
-32.377773 -37.390625 -977.827515 
-22.957172 -15.359869 -1029.039307 
-26.556614 -14.876049 -1023.358704 
-26.914288 -15.023302 -1022.960083 
-29.041351 -14.504457 -1021.448364 
-32.668983 -15.706224 -1013.851807 
1.547476 55.407196 -964.235840 
-23.661915 -15.740244 -1027.137573 
24.579039 -22.463310 -977.795288 
-32.498505 -42.780373 -968.823914 
-24.596285 -15.665751 -1026.157593 
-24.426273 -15.954856 -1026.479248 
-31.046980 -14.465059 -1020.043518 
-1.285776 -21.596178 -1035.120239 
-32.870125 -38.977062 -976.840820 
-25.619583 -16.373959 -1025.098267 
4.628743 21.933168 -992.394470 
-31.839893 -38.110638 -980.853699 
-32.305054 -41.511768 -973.308655 
-29.872103 -15.233979 -1021.884216 
-10.311678 57.371498 -959.291260 
-9.141610 56.149395 -949.891968 
-8.515856 56.513725 -947.923340 
-32.429832 -42.475410 -971.563538 
-10.982212 50.365025 -938.673828 
-24.451265 -16.056059 -1028.635010 
-30.547344 -38.724163 -982.148132 
-32.470573 -38.547882 -980.128479 
-27.288473 -16.392349 -1024.572876 
-8.983595 55.572983 -945.183899 
-31.813337 -15.410168 -1019.163635 
-0.044400 32.964920 -982.241760 
-32.215271 -18.170029 -1014.375122 
-32.877678 -40.864323 -974.877319 
-32.945980 -43.496693 -970.073608 
-32.263828 -16.049021 -1017.540527 
-8.851135 56.212322 -945.905640 
-28.762545 -39.980656 -983.917786 
-31.308464 -38.940510 -981.814392 
-19.766699 -17.910269 -957.835999 
-10.791787 58.027382 -960.515930 
-32.863831 -42.932098 -973.144714 
-9.057118 56.844780 -947.136658 
10.110159 -16.625835 -1029.542969 
-11.340216 51.748951 -941.135132 
-33.152843 -39.720539 -979.164368 
-33.447456 -40.467064 -977.267517 
-14.912166 55.050953 -968.323364 
-25.348604 -30.806293 -1004.054016 
-30.585009 -40.054375 -982.866577 
-31.858002 -39.646900 -981.578491 
-33.003761 -45.899380 -969.093750 
25.373905 -31.897285 -1003.708618 
13.691827 51.125774 -957.309082 
-27.920961 -16.783632 -1025.097778 
-27.351774 -25.127590 -1012.333862 
-10.941977 58.089432 -960.987488 
-30.252054 -16.785828 -1022.956787 
-12.216670 52.298149 -943.131226 
-33.009705 -44.102436 -972.702393 
3.225736 -0.929385 -1023.261108 
-27.299999 -17.001484 -1026.924438 
-5.853105 39.492207 -982.921326 
-31.672287 -17.091785 -1020.084839 
-27.263952 -27.630320 -1007.794495 
-8.632594 -19.008938 -1036.585205 
-32.101173 -18.311020 -1017.845947 
-12.752306 48.965034 -936.544617 
-33.603935 -42.052856 -976.403687 
-27.978037 -17.148947 -1026.302124 
-30.920572 -17.114697 -1022.006592 
-28.315329 -25.947325 -1010.668152 
-26.948305 -30.920662 -1003.333130 
-24.281395 43.751545 -971.820129 
-28.406408 -31.030760 -1002.009521 
16.761227 -25.255627 -1008.619141 
-32.521084 -40.655388 -980.922729 
8.356441 50.122036 -968.502808 
-27.598419 -29.206268 -1006.444946 
-27.593063 -30.534445 -1005.142456 
-33.472519 -41.665081 -978.468811 
-14.361894 13.107806 -1005.003113 
-27.556929 -30.034050 -1005.882996 
-14.056309 15.615837 -998.750000 
-28.116398 -30.884716 -1003.797302 
-29.748886 -17.898878 -1024.410645 
-15.675321 45.914875 -934.696655 
-3.773743 13.872963 -1006.720886 
-29.049561 -27.111835 -1009.433228 
-29.659712 -31.330973 -1001.405518 
-25.596939 -17.797306 -957.232849 
-31.635477 -19.872389 -1018.736389 
-29.510715 -26.112753 -1011.585632 
-29.584148 -26.739161 -1010.394958 
-31.465115 -19.262342 -1020.684387 
-12.303762 57.352249 -958.175903 
-29.124405 -24.850901 -1015.463562 
2.497868 1.861757 -1020.536560 
-22.415701 -17.942270 -956.974060 
2.309504 3.828343 -1021.414734 
-30.202745 -26.315420 -1012.244080 
-30.247892 -27.943403 -1009.553040 
-29.415485 -28.764832 -1007.975281 
-29.057163 -29.867451 -1006.937439 
-2.965071 52.524578 -971.362915 
-12.777025 58.279617 -962.672729 
-12.800269 58.466259 -960.973450 
-29.248627 -24.182487 -1017.148682 
-29.322454 -30.625603 -1006.066162 
-11.562078 56.694569 -949.799438 
-30.552866 -31.245472 -1002.906616 
-30.006374 -31.040766 -1005.178467 
-30.781700 -32.344578 -1001.071777 
-31.157686 -31.925003 -1001.923157 
-13.359032 58.569496 -961.683960 
-29.175295 -20.919588 -959.142761 
-19.338970 -5.297739 -1027.933594 
-31.119987 -27.830641 -1011.083679 
-30.362637 -30.334621 -1008.001831 
-28.838041 -20.690620 -1026.889893 
-30.764526 -25.994246 -1015.309082 
-13.721779 52.016392 -940.840332 
-31.885372 -32.175945 -1002.994385 
10.855343 -34.960007 -1000.781616 
-26.080643 -21.130249 -1031.131714 
-30.067427 -24.227556 -1020.118896 
-0.446680 3.538993 -1020.549438 
-30.383175 -25.344627 -1017.361755 
7.603910 -23.925480 -1030.559692 
-29.281731 -21.295214 -1026.379639 
2.021091 40.723549 -977.589172 
-23.686607 49.629993 -942.766296 
4.447567 24.511379 -988.300354 
-6.642283 41.011517 -981.317505 
-4.128301 41.317814 -978.762390 
-4.508838 41.211220 -979.042969 
-13.329999 58.681526 -959.366760 
-29.741268 -41.055885 -965.681641 
-2.702590 41.027988 -978.803711 
-3.936476 40.547596 -980.758179 
-0.820737 40.387493 -978.186768 
-4.744170 40.451622 -981.971985 
-31.069061 -28.902245 -965.632813 
-18.405888 -50.304001 -960.277588 
-3.920619 39.765625 -981.940063 
-2.752873 39.656162 -981.535461 
-1.345064 32.313011 -984.050598 
-3.828251 31.929686 -986.739807 
-0.514992 32.206535 -983.757324 
-14.694429 51.348938 -939.198059 
-3.753229 31.550856 -987.145935 
-13.692492 58.509964 -958.601318 
-0.720713 31.619427 -986.166626 
-12.862230 57.482571 -951.022705 
12.826907 -31.100992 -1002.181274 
6.698531 33.167603 -981.674255 
5.022219 32.670914 -983.330444 
-12.193636 23.437889 -988.830078 
4.924884 32.373409 -984.087952 
-13.816823 59.166645 -960.426819 
7.653827 31.762627 -981.280151 
6.630443 31.851139 -984.115173 
-14.985047 52.385288 -941.808716 
7.988288 31.165802 -983.449341 
7.031513 30.782888 -984.608154 
6.460168 31.722109 -985.892456 
8.609337 30.686958 -982.363770 
18.736380 24.598633 -957.104614 
-24.187576 -18.215971 -956.904846 
6.235913 31.168270 -986.560852 
12.947946 30.945017 -978.116272 
7.106862 29.417942 -984.990173 
11.575418 14.315414 -948.947083 
14.468186 28.947077 -974.981201 
14.049261 16.956539 -953.475037 
14.859996 18.548464 -955.678955 
-14.513325 58.019539 -957.575806 
24.210529 -34.608051 -1000.244934 
-13.482522 58.750217 -953.413452 
14.586115 28.871372 -976.234375 
26.200329 -33.118481 -1002.284424 
-30.715219 -33.585163 -1000.545715 
11.095052 30.155653 -983.799866 
-10.972672 20.526566 -993.312195 
12.162610 13.135753 -949.622681 
5.325900 21.354984 -992.157349 
-11.684608 20.702255 -994.884094 
-0.877119 3.332313 -1021.409119 
23.838383 -11.886614 -979.514404 
16.896971 26.645161 -969.370483 
-20.820644 43.159389 -973.083252 
-16.834984 53.046288 -944.721497 
5.841803 52.439201 -970.901367 
-13.826464 58.205658 -951.685303 
15.585071 19.100651 -958.190918 
17.270956 27.269024 -970.848511 
13.189831 30.050220 -982.375793 
-14.251097 59.056873 -953.010376 
12.390475 30.134098 -983.108276 
0.117349 5.338020 -1018.930054 
-10.474512 20.402327 -994.314148 
-10.775002 20.430109 -994.779724 
-11.695919 19.897366 -995.953247 
-15.579571 59.439606 -960.984436 
-15.134100 -38.754112 -949.620483 
11.063608 29.883472 -984.255005 
17.387989 25.727343 -968.657104 
17.043108 27.797609 -972.980469 
14.230710 29.041876 -979.351563 
14.010203 29.541063 -981.930847 
-14.828502 58.443401 -951.324158 
15.805615 18.157305 -958.184448 
16.987173 28.366301 -975.063416 
4.331471 1.291704 -1018.838440 
-15.249593 59.478275 -953.421448 
15.465570 27.859432 -977.896301 
14.255194 28.395910 -980.169617 
12.663300 29.134848 -984.129333 
16.306618 19.899525 -960.664246 
18.050522 25.249321 -968.963623 
13.109547 11.575830 -949.799011 
-18.239508 54.870522 -948.446045 
-3.124545 21.382795 -990.942383 
18.084564 26.229836 -972.184509 
-23.145082 13.045040 -975.189880 
-18.475418 54.010693 -946.518982 
15.164756 27.615515 -979.577454 
3.117922 1.731283 -1019.938171 
14.651084 28.702766 -982.010254 
4.837884 24.056105 -986.571838 
-11.630756 18.023010 -997.213562 
-25.375250 -3.017908 -999.372620 
16.589523 18.871655 -960.588745 
18.382492 26.585417 -972.998291 
15.361340 26.912127 -979.124207 
4.868123 24.182810 -987.028870 
-12.981514 18.271688 -999.168701 
13.496419 10.795185 -949.666077 
3.938184 24.552013 -988.857788 
6.219158 50.807732 -970.529907 
-16.569969 4.510297 -1012.846313 
17.478987 27.741644 -977.264038 
14.898457 27.270100 -981.638611 
18.592657 -22.250090 -959.443665 
18.514267 27.266708 -975.290649 
20.990917 -2.563519 -1000.581482 
14.842369 27.944935 -982.691406 
18.846428 24.139791 -970.256592 
18.783087 24.604307 -972.180054 
3.226267 23.389990 -990.122192 
-13.411358 12.879049 -1009.270752 
17.287333 27.328764 -978.016418 
15.109683 26.559813 -980.886963 
5.621298 50.615364 -970.955750 
-3.317344 59.542564 -952.611694 
14.906724 27.076897 -982.375549 
5.876672 23.956223 -988.315918 
4.669756 24.392551 -989.441711 
14.736062 27.646055 -980.443420 
4.342724 3.236713 -1019.581116 
-10.852870 17.840500 -998.646423 
13.883668 9.519889 -949.356812 
-30.918858 -15.648414 -978.453979 
21.208635 24.331707 -967.829834 
22.898718 -24.898584 -1015.193481 
19.084267 26.348690 -974.623230 
18.233496 27.069195 -977.128418 
14.439706 27.355610 -983.521851 
19.539070 25.740955 -973.760132 
-25.514566 28.788336 -951.148560 
15.494350 26.061117 -980.343018 
-25.518707 29.471170 -950.585327 
-10.291276 17.048532 -998.856506 
19.138725 23.391853 -970.633545 
19.926792 25.020878 -973.693420 
-10.786916 17.482845 -999.601257 
-2.027106 20.547754 -993.787109 
4.291996 36.506199 -983.237549 
18.253481 17.221836 -961.354004 
11.464337 34.451313 -939.781677 
19.522882 26.151266 -975.837952 
19.218227 26.457481 -976.737488 
14.989630 25.225094 -981.868469 
6.478470 22.197481 -986.027039 
-2.412177 20.358667 -994.714233 
-12.141804 10.678108 -1013.181946 
15.344505 25.069744 -981.254822 
18.562397 -24.896744 -1032.670776 
6.674890 23.674103 -989.534973 
17.762835 -22.010799 -959.260742 
21.417366 23.111557 -969.628662 
20.172247 24.440813 -974.479553 
18.854649 26.113525 -977.526611 
6.610359 22.138123 -987.657532 
6.746712 23.434376 -989.071289 
23.021900 21.585930 -965.444458 
1.642285 -14.994832 -946.528259 
-15.005322 47.344547 -975.285278 
22.535456 -37.249741 -998.126709 
6.617592 23.297014 -990.694519 
-23.845942 19.142519 -962.808777 
-23.415924 19.097010 -962.554688 
19.764687 24.624950 -976.036621 
22.948214 21.933676 -966.292297 
22.187164 21.882853 -968.025452 
19.512957 22.492142 -972.745972 
9.666091 -20.026167 -1030.046509 
23.043739 20.654270 -964.658142 
21.714304 22.307175 -969.742615 
-11.653737 15.066846 -1002.103638 
-30.713255 36.586063 -954.805664 
8.867646 20.373875 -984.075195 
8.081731 20.832209 -986.032959 
18.676720 -24.467285 -1009.888428 
-13.405042 15.563127 -1005.271240 
22.009342 39.201134 -960.009155 
23.377243 20.638334 -965.970398 
22.486200 38.386982 -960.172852 
10.351214 20.178852 -982.858337 
7.622900 21.313593 -988.380493 
-11.365324 15.077990 -1003.427917 
-12.379314 15.594691 -1004.333435 
3.644831 -1.877434 -1024.478271 
20.377102 16.550188 -962.258972 
19.668411 -18.240128 -960.049072 
-26.861015 -45.783150 -949.828247 
-3.795698 3.457220 -941.459412 
23.965412 20.141933 -966.195618 
23.163790 20.578114 -967.322693 
21.990929 20.996584 -969.427368 
8.680042 21.076429 -987.777466 
-31.183632 -40.588032 -967.233643 
-11.928812 6.199121 -1019.499390 
-10.909292 14.846712 -1004.377747 
23.832600 19.662270 -965.318054 
8.816013 20.908449 -988.232361 
-13.189970 17.736855 -996.790588 
20.842634 15.340433 -960.906616 
-15.041221 -32.774174 -959.239624 
21.073992 1.653141 -978.219055 
15.545688 30.345085 -943.810120 
-11.047540 14.616295 -1005.234802 
22.320951 20.165800 -969.798523 
-22.471422 -1.205012 -998.443665 
-26.137104 -21.975889 -1032.744751 
-27.572027 -23.060051 -1032.921143 
-26.858002 -22.273951 -1032.231812 
-5.591258 16.467293 -1001.489441 
21.186033 14.334111 -960.129028 
23.678772 20.309996 -968.478088 
12.490947 19.310638 -982.222717 
-14.327326 47.224636 -975.487732 
10.387494 19.068262 -985.280579 
-9.847979 30.694475 -984.275330 
13.773313 -21.852015 -959.652527 
9.336452 20.133348 -989.050415 
21.100714 13.187800 -958.616272 
17.565172 18.369905 -973.382813 
15.442945 18.953907 -978.837402 
10.323753 19.281118 -986.557007 
24.088272 18.771605 -967.121582 
23.878771 19.372757 -968.182007 
-19.074488 -15.443763 -987.117126 
-12.669673 13.396601 -1006.760010 
7.852315 -16.406563 -1033.862793 
14.009301 24.692699 -982.699707 
13.817542 18.703550 -981.581299 
-25.118341 -10.789758 -982.129211 
10.234807 19.819014 -988.232788 
6.823381 20.056425 -994.300293 
6.668768 20.483301 -995.061829 
5.019964 22.935200 -935.014587 
15.857497 -23.536736 -1008.689819 
-25.633568 -12.101304 -999.692444 
5.859942 21.006626 -995.779236 
-12.215192 13.358145 -1006.848145 
17.257103 -24.431847 -1009.261719 
-23.695271 -13.611925 -999.767639 
-24.160713 -13.478506 -999.978882 
20.693895 14.501211 -963.663147 
15.486020 0.834077 -1013.865967 
6.587968 20.394455 -995.883057 
-27.110580 41.313766 -949.531677 
-12.268871 12.966043 -1007.776306 
-12.607786 13.110849 -1008.661011 
20.733841 13.995898 -963.751160 
16.899431 17.645672 -976.682434 
-23.741716 -47.776974 -948.597656 
-0.853765 2.922901 -1022.703430 
-26.273973 -25.332460 -1034.168335 
17.471725 -31.390322 -998.248413 
13.765946 17.824074 -982.867432 
11.323059 18.089928 -985.952209 
7.003836 17.564945 -991.317322 
6.466609 18.515188 -993.282166 
-9.234934 32.850796 -933.351929 
7.143125 19.633591 -995.604553 
21.244644 9.752812 -956.955688 
-13.456044 54.380482 -968.880310 
-4.828469 15.199279 -1003.473816 
20.542898 8.151079 -954.587097 
19.434679 16.323917 -971.985107 
7.270990 12.625261 -1003.405823 
16.894333 17.200811 -977.965149 
11.399735 17.918070 -986.390076 
-31.289759 -34.070770 -950.099670 
21.270964 12.134326 -961.482483 
-31.262899 -34.918476 -949.108459 
-30.475330 -34.180893 -948.881531 
-30.344280 -34.491531 -948.596130 
11.269114 18.634743 -988.758545 
-10.757905 12.666304 -1008.361389 
-11.407396 12.854109 -1008.885254 
21.286261 10.320292 -959.287109 
7.646007 17.861364 -992.445984 
19.733866 34.424080 -971.727478 
16.835024 -20.200100 -1025.599243 
7.498419 27.160793 -930.794373 
21.167728 -3.628913 -999.573303 
-12.053574 12.570654 -1010.327209 
14.970367 -21.280426 -1026.791016 
16.554688 16.961464 -979.351135 
15.030059 -21.717869 -1026.760620 
23.470955 -46.840328 -958.321289 
25.444160 -47.131878 -959.190125 
12.685651 29.859047 -979.583740 
25.691576 -47.864269 -958.655334 
-13.746552 -16.584166 -960.896362 
21.121401 13.990331 -966.180725 
8.481778 16.974613 -991.614319 
7.340088 17.845980 -994.129883 
-17.346426 -16.481602 -960.025940 
-20.766756 -45.411804 -949.607727 
-23.385798 -44.588455 -948.971741 
-21.205507 -44.081463 -949.155396 
14.575332 20.851648 -978.209290 
-4.986061 58.417542 -958.887024 
-19.564720 -2.099615 -1021.896912 
-1.074741 5.622156 -1018.507446 
11.403206 18.164467 -989.926453 
4.721662 18.808640 -999.706482 
19.343199 4.122103 -951.554871 
19.994070 15.259079 -972.885742 
16.516504 37.171150 -971.761414 
4.703192 17.660122 -998.335815 
15.517538 36.913479 -973.020508 
-25.975201 49.015923 -959.449951 
-10.487011 12.144085 -1010.480957 
-3.298617 7.697000 -1015.288330 
-2.198103 6.897227 -1016.589478 
20.907759 14.262112 -970.662170 
-2.610396 7.221067 -1015.674866 
-30.100901 -36.289818 -999.748779 
4.715137 16.414015 -997.736206 
-2.461307 14.805556 -1004.871582 
-20.325254 41.084499 -935.369080 
21.437532 13.376541 -967.937988 
-20.540716 42.660545 -936.321472 
-24.257219 -16.755968 -1001.582886 
8.913931 16.483040 -992.519775 
5.081759 18.658241 -1000.663696 
-0.834717 -18.488489 -941.831177 
19.740158 3.413738 -952.216858 
5.833570 0.422855 -1019.084045 
19.601215 32.765888 -971.687073 
2.611573 57.474567 -950.055115 
-18.966980 20.034781 -944.006348 
15.075397 16.032932 -983.713257 
-24.337107 -11.513458 -999.483704 
22.487701 9.592393 -961.298584 
-25.451168 -8.011204 -983.452271 
12.245969 17.115767 -989.606567 
22.177666 11.413381 -965.286621 
-29.558033 43.586529 -952.051331 
16.402090 -2.554444 -1023.370056 
12.321794 16.253170 -987.870483 
5.550883 16.957319 -999.079529 
5.986506 17.881426 -1000.128906 
-16.485468 -20.676319 -962.279785 
14.634435 -3.140392 -1024.122192 
15.061047 -2.514404 -1023.898438 
-29.318882 -42.382694 -953.601440 
-29.763105 -44.544785 -955.344299 
-29.549488 -44.033237 -954.249329 
5.610285 15.858405 -998.497559 
-22.538923 0.171705 -1019.259644 
22.147614 12.479310 -968.585571 
-7.077930 59.819469 -963.360718 
1.348377 9.097893 -1012.585510 
-4.480932 37.545116 -983.034180 
12.136320 16.258350 -991.426636 
9.794804 15.696222 -992.971008 
10.571559 16.958540 -990.683044 
12.208416 16.595131 -991.116150 
-29.979939 23.494125 -959.555786 
19.444899 13.890504 -978.086975 
12.662241 15.504147 -988.819031 
12.718559 16.233076 -990.542786 
6.002370 15.906820 -999.459045 
-3.743670 44.079811 -977.023865 
-17.763210 -13.009305 -1029.983398 
-11.268419 10.601583 -1013.282959 
9.537768 -25.729263 -965.055420 
-13.310053 47.494152 -974.906372 
5.295419 23.850668 -934.069885 
12.362436 -49.549747 -955.962891 
-20.769789 30.169373 -940.378479 
17.809692 14.235314 -981.343445 
-12.851120 16.140671 -995.656799 
10.117957 15.897108 -994.275269 
-17.859161 25.776577 -933.144226 
-14.617169 54.661697 -969.291687 
-14.756617 52.837200 -970.403625 
21.460363 2.014339 -952.455017 
22.945908 8.909583 -964.895142 
12.586732 -28.177019 -1005.097168 
22.805088 10.878772 -969.004639 
-15.165302 54.610172 -969.333130 
-23.514673 -0.461105 -1021.068420 
-25.506096 30.344339 -955.978882 
-29.002878 -9.898124 -1000.742920 
6.697442 15.332382 -999.635803 
-10.853477 10.190065 -1014.065674 
-26.851772 31.427881 -955.139954 
10.448849 14.972025 -993.917664 
21.185678 -36.215408 -997.730286 
3.709570 16.118629 -1005.240967 
-30.285000 -13.234514 -979.913391 
21.686514 1.942423 -953.656982 
23.311262 8.024843 -964.026062 
-2.078107 -18.439787 -951.713562 
-1.579584 -18.647087 -951.763428 
17.335434 -19.482765 -978.753296 
13.773540 14.550314 -988.356873 
13.157878 14.816213 -989.677063 
19.086342 -31.274656 -999.662781 
10.452528 15.704500 -995.162048 
-9.453144 9.316547 -1013.484924 
-1.593369 -19.410263 -950.419617 
-2.386184 -19.326223 -949.864868 
-8.673347 -25.011463 -1035.392822 
-4.768083 11.685460 -1010.362488 
0.588059 43.928574 -975.693970 
-8.387684 -22.845978 -1035.992920 
10.554428 15.521282 -995.655212 
14.898035 -37.768536 -1000.145569 
14.495030 -1.128922 -1019.997375 
8.071014 15.168312 -998.885559 
22.652153 1.363625 -952.369629 
22.765982 1.438917 -953.422241 
23.835371 6.176920 -959.818665 
24.134542 6.303357 -961.559387 
-4.356899 32.142250 -983.308716 
12.877399 -19.566837 -960.544006 
17.406782 13.225274 -983.517456 
-6.046207 31.723728 -983.939819 
-30.879011 -48.065521 -954.691284 
-25.984566 42.167477 -964.535828 
-30.704176 -46.262733 -954.403870 
17.077909 -30.994249 -998.871704 
12.212670 -1.387204 -1018.773621 
-4.110084 11.484519 -1011.007629 
14.253181 44.749264 -972.482910 
2.004905 -1.848661 -1025.521362 
14.658552 46.242935 -972.390015 
23.179415 10.488820 -971.228149 
19.437218 12.233614 -980.454651 
4.730229 15.508776 -1006.113342 
14.003719 46.056961 -963.522644 
13.492453 44.109005 -973.666992 
13.922604 46.581291 -973.518982 
22.639843 11.219042 -973.911194 
21.772707 11.468409 -976.452881 
-27.787987 45.491779 -952.818604 
13.834533 14.233310 -991.509338 
11.861223 13.926068 -993.306580 
20.310118 33.665970 -970.944763 
4.779765 13.728086 -1003.700989 
23.278139 0.687323 -953.448120 
14.519502 46.849705 -962.845093 
-24.879063 31.295486 -967.178284 
23.366768 8.906265 -968.424683 
-25.187273 29.972399 -965.968506 
16.363670 12.558630 -986.095337 
-27.505508 16.884823 -975.325989 
-25.140368 30.497261 -966.687500 
23.030241 0.429874 -954.361328 
-26.587036 -12.108992 -959.605164 
14.295220 53.971962 -956.179993 
-31.958811 -18.883934 -1013.996704 
11.999148 52.042870 -968.422546 
-9.115181 8.143942 -1014.510559 
21.933939 0.505828 -955.340210 
14.371302 54.710701 -957.627075 
14.326057 54.779366 -958.208313 
-12.796597 42.931629 -976.368530 
21.189846 10.967735 -978.211975 
5.397590 -10.681134 -1027.593628 
15.582159 12.520027 -987.857727 
12.831686 13.148514 -993.023682 
-12.333922 10.300106 -1011.843628 
8.247487 0.395352 -1020.153870 
-13.460525 11.321678 -1011.448486 
-13.071361 11.675200 -1011.432983 
17.264299 -15.294020 -959.443970 
14.233033 13.596013 -990.841858 
-28.512140 -23.097025 -958.242371 
9.857459 13.980897 -999.323914 
-3.396116 10.545089 -1012.335266 
24.626123 4.791274 -961.129211 
6.838158 -0.505044 -1020.654846 
9.669429 14.044331 -999.880188 
5.524537 13.264979 -1004.550537 
5.334793 13.410542 -1005.020752 
-16.127338 -41.072941 -968.641296 
-12.807995 14.664231 -1006.394653 
-11.248663 7.361694 -1017.146912 
24.135202 -0.148671 -953.924622 
15.169626 56.383064 -950.597107 
6.429059 -11.490788 -1028.013062 
-24.994160 13.838795 -971.420288 
12.335112 51.334869 -945.912720 
12.844516 51.335999 -945.840393 
24.671049 5.474169 -964.496460 
23.811848 9.315027 -973.234924 
19.776661 10.431086 -981.301941 
14.502869 46.088081 -965.252075 
12.436056 13.164603 -996.402405 
-1.096152 35.736874 -981.482178 
-8.689154 43.459312 -976.011047 
-20.455284 0.126355 -1017.758057 
-7.041443 13.134594 -1023.842407 
21.089909 -51.371243 -955.954102 
22.715710 -1.010056 -955.735413 
24.329752 6.365506 -967.350769 
15.389794 45.611351 -965.041138 
23.363434 9.470724 -975.155396 
21.455231 9.373691 -978.622192 
18.090508 10.465449 -984.826599 
13.053876 12.433267 -995.196533 
11.214122 -10.412445 -1027.913086 
5.203325 12.820208 -1006.802734 
10.302114 -11.312104 -1030.363525 
4.290564 12.614500 -1008.186035 
24.407478 -1.451694 -953.176575 
24.318230 8.088612 -971.106995 
-8.288439 45.032211 -976.870667 
15.318669 11.614617 -990.152527 
14.081581 12.137796 -992.346008 
-16.412397 40.726883 -972.748779 
5.703701 -11.130788 -1027.878540 
3.315455 3.838671 -1020.965332 
-9.559069 43.328259 -975.332520 
-7.106578 43.719627 -976.782898 
10.647217 12.396868 -998.659546 
3.675447 13.239931 -1009.715698 
3.820869 -11.036600 -1032.227661 
-8.827938 -26.192816 -1034.786865 
-6.257729 56.728298 -964.713501 
-24.932306 -20.089718 -956.687988 
-19.035084 -36.863873 -1002.131714 
-31.577671 -36.048130 -1001.987793 
-20.217995 -49.131752 -951.127441 
-13.488476 11.858656 -1006.282959 
13.855727 11.463722 -994.210754 
4.522592 13.103325 -1009.816406 
23.821844 -3.811507 -951.298706 
-17.374607 -36.469391 -947.223328 
-18.329979 0.426386 -1016.707581 
0.479947 22.489317 -987.160156 
21.000546 8.448699 -979.632446 
1.659004 22.496412 -988.426514 
15.197297 51.184944 -963.091248 
24.790577 -1.661165 -953.937988 
25.177206 2.059416 -960.642883 
-1.641519 4.734738 -1021.055115 
12.477559 -0.497463 -1016.969421 
19.164076 9.346463 -983.531189 
-17.786097 -0.464547 -1019.683228 
-15.777519 -0.274706 -1018.627441 
-14.857964 -0.135267 -1018.458618 
10.941701 12.481219 -1000.573242 
4.906747 -9.989460 -1029.050293 
-5.578189 12.879344 -1024.154175 
22.372171 8.366586 -977.715332 
-16.203201 0.531672 -1018.557495 
15.307942 10.876449 -991.543457 
0.559546 5.830351 -1017.313538 
-25.384119 -7.414845 -998.702454 
-20.947060 -19.553478 -956.948730 
24.674925 7.422039 -972.538879 
23.103886 8.202787 -976.863159 
1.172316 -27.558884 -1031.249634 
16.826420 9.922589 -988.853149 
1.982485 -28.167566 -1030.210938 
5.020559 12.750580 -1010.607117 
13.000615 11.255655 -996.716492 
-0.185986 6.499669 -1016.001465 
-4.978865 7.829989 -1015.975098 
-23.232147 -8.236907 -998.816772 
25.571329 3.144776 -964.285400 
8.424308 36.989635 -979.997559 
6.771362 34.949833 -980.403870 
5.682229 11.759739 -1009.879395 
-28.237820 -11.340110 -981.610657 
7.143386 36.743320 -981.873352 
24.548498 -4.054485 -952.613525 
6.731893 33.719734 -980.428345 
25.023129 4.779857 -969.184814 
8.057632 36.260063 -980.074585 
10.090063 12.039272 -1002.607727 
7.587177 11.653592 -1006.519348 
5.187548 10.795924 -1008.449524 
-31.036497 -46.383034 -963.901184 
-4.135772 11.966132 -1023.131165 
-31.299297 -47.696835 -963.792542 
20.875711 7.085478 -980.315918 
-20.297050 29.199940 -939.717529 
4.985076 12.366779 -1011.480835 
-6.539824 6.912958 -1018.067749 
-3.987103 11.963248 -1023.611877 
10.292070 0.533788 -1016.082703 
11.494351 10.901731 -1000.388672 
11.539166 11.398590 -1001.362366 
-3.971916 11.774717 -1024.031128 
-0.908802 -12.049504 -941.810486 
25.226927 5.361502 -971.020935 
-1.624240 -10.931491 -941.681824 
24.825731 6.647467 -973.968506 
-32.114098 -4.475698 -978.320374 
-19.139458 0.673010 -1015.752869 
-0.036451 -10.882656 -942.328918 
0.471595 -11.246891 -943.715210 
25.665569 2.757281 -966.055054 
24.386456 6.756442 -975.285645 
-24.504011 23.033241 -958.173523 
-3.812039 10.651225 -1021.922729 
25.208399 3.415945 -968.298767 
-26.346098 22.698397 -959.128235 
20.231762 6.980936 -982.617065 
-26.999729 23.225559 -958.355408 
-12.059483 42.547932 -976.226746 
-26.183626 25.229166 -957.741882 
-26.027342 24.318193 -957.990601 
8.423757 11.179272 -1006.406067 
-24.981613 24.053320 -957.996521 
25.853710 -0.022164 -961.106079 
11.528000 11.165771 -1002.290527 
24.775835 -27.685997 -975.869934 
25.446854 -27.315945 -974.494446 
25.556120 -25.694511 -974.647461 
9.048838 10.806907 -1005.315735 
25.309334 -25.759886 -976.106934 
25.246393 -26.602774 -972.962708 
-22.119156 -43.328590 -949.030518 
25.249012 3.225187 -969.684387 
-18.774605 -42.921165 -950.878357 
-18.411970 -42.258038 -950.258301 
-18.847990 -42.585114 -950.178406 
-3.744031 6.581365 -1018.006104 
-19.369871 -42.136650 -949.132690 
-17.689297 -41.874977 -948.762512 
22.041348 5.193320 -978.588562 
18.448423 7.459416 -987.618286 
-22.160250 -42.371674 -948.825378 
8.348071 10.531758 -1007.491333 
6.077621 9.492251 -1009.140808 
12.495897 -14.811396 -1030.394043 
25.340588 4.866669 -973.831726 
21.544081 4.448203 -979.166687 
2.672641 2.368115 -1022.055725 
15.045815 9.276628 -995.256653 
-3.875091 6.540725 -1018.927185 
10.772956 -15.156234 -1033.672485 
-15.932352 -30.667786 -957.094849 
-2.710462 10.171466 -1022.747620 
-3.120104 10.311451 -1024.158691 
12.746623 -14.060872 -1030.771973 
24.324123 5.371306 -976.213989 
12.144824 9.713042 -1000.895813 
9.730275 9.616367 -1004.670593 
-3.904359 7.372938 -1020.146362 
-0.143953 -31.892740 -1004.204895 
-2.565676 8.869113 -1021.712097 
11.494175 -12.954970 -1032.670898 
25.638073 3.279668 -971.511414 
11.491943 -14.225042 -1033.181519 
19.407633 6.301368 -985.798401 
17.325344 7.589272 -991.204895 
11.995395 -13.138205 -1031.648193 
11.227926 -15.271091 -1030.889404 
11.205605 -43.707558 -963.601746 
11.743416 -14.790633 -1031.325073 
-22.012711 50.937428 -945.330505 
-27.974428 15.903651 -971.427429 
-1.292033 37.590149 -982.086487 
11.007887 -43.173973 -964.239563 
26.371553 -0.855948 -962.740417 
26.068390 0.785103 -966.571289 
25.650875 1.420975 -967.902283 
25.096193 4.445006 -975.110168 
14.093848 8.908437 -998.486816 
-23.017244 51.807533 -946.758118 
-7.865664 20.314684 -988.072998 
10.673839 -11.444812 -1030.605591 
21.153267 3.358592 -979.880310 
3.721420 5.272659 -1014.677673 
-22.180119 -20.066084 -956.588867 
4.348055 9.382121 -1014.150757 
-17.864117 43.419266 -973.125671 
-20.140648 -41.070137 -948.429321 
23.751646 4.231978 -977.236877 
21.091900 3.495924 -980.436646 
15.486812 8.024675 -996.239868 
11.184310 40.051346 -974.137207 
12.523474 8.779120 -1001.624207 
11.465274 39.239956 -974.991272 
26.461220 -0.711324 -964.406372 
9.077785 39.197575 -977.068176 
10.100497 9.502527 -1006.834351 
4.029350 9.796336 -1015.087585 
-2.598959 6.858327 -1020.564209 
6.333555 -6.791632 -1029.628052 
8.877452 39.650135 -974.867371 
-9.753433 5.655259 -1018.644470 
9.585244 39.279823 -974.920715 
10.774899 39.107140 -975.445068 
-2.342960 5.945966 -1019.603821 
-30.678524 -39.941734 -965.553894 
-1.876437 9.202582 -1023.589355 
-22.386114 -38.656143 -946.155884 
-30.559528 -40.006821 -963.789307 
-30.797323 -39.797703 -962.945374 
12.207355 9.364759 -1003.382385 
6.566364 8.715131 -1010.937256 
-30.451870 -38.274940 -963.881653 
6.095136 37.012722 -983.153687 
-30.584711 -40.240040 -961.429138 
-30.427725 -40.687443 -961.216614 
-30.266144 -38.951633 -965.734009 
-30.605644 -39.377186 -965.511047 
4.847421 8.471893 -1015.014221 
-1.468784 8.497251 -1023.140076 
-12.924107 32.668636 -934.650757 
-19.483679 40.103714 -935.671570 
25.730125 2.532234 -973.847839 
-29.158154 43.030827 -954.549438 
-14.668781 58.339966 -962.354248 
10.725802 8.567978 -1006.636963 
4.406873 9.092072 -1015.833923 
-19.994322 41.088337 -934.376526 
-17.627983 40.857155 -933.119812 
-19.347542 39.116901 -936.219727 
17.742237 5.936676 -992.143677 
16.214367 6.777380 -995.800354 
12.272175 8.641223 -1003.910034 
-1.503497 7.327013 -1022.010498 
25.307940 0.432557 -970.641357 
