ply
format ascii 1.0
comment VCGLIB generated
element vertex 1895
property float x
property float y
property float z
element face 0
property list uchar int vertex_indices
end_header
-4.875 -3.125 2.91476 
-4.75 -3.8125 3.47317 
-4.5625 -4.5 4.31849 
-4.375 -5.1875 4.79552 
-4.25 -5.89063 4.64481 
-4.125 -6.59375 5.00539 
-4 -7.28125 5.46873 
-3.8125 -7.96875 5.80547 
-3.6875 -8.67188 5.66901 
-3.625 -9.35938 5.25126 
-3.5 -10.0625 4.75684 
-3.4375 -10.75 4.4073 
-3.375 -11.4531 3.67667 
-3.25 -12.1406 3.45526 
-3.125 -12.8438 3.02719 
-3.0625 -13.5469 2.61452 
-2.9375 -14.25 1.92043 
-2.8125 -14.9531 1.86272 
-3.5625 -15.0781 -9.0812 
-3.4375 -15.7813 -9.05637 
-3.3125 -16.4844 -9.10347 
-3.1875 -17.1719 -9.13515 
-3.0625 -17.8906 -9.39066 
-2.9375 -18.5938 -9.38909 
-2.8125 -19.2969 -9.39463 
-2.6875 -20 -9.39974 
-2.5625 -20.6875 -9.22245 
-2.4375 -21.3906 -9.14191 
-2.3125 -22.0938 -9.26025 
-2.1875 -22.7969 -9.23611 
-2.0625 -23.5 -9.37369 
-1.9375 -24.2031 -9.35368 
-1.8125 -24.9063 -9.34822 
-1.6875 -25.6094 -9.37217 
-1.5625 -26.3125 -9.37341 
-1.4375 -27.0156 -9.28693 
-1.3125 -27.7031 -9.17757 
-1.1875 -28.4219 -9.30957 
-1.0625 -29.125 -9.35875 
-0.9375 -29.8281 -9.21075 
-0.75 -30.5313 -8.93759 
-0.6875 -31.2344 -9.00804 
-0.5625 -31.9375 -9.33712 
0.25 -32.3438 1.9271 
-0.4375 -32.6406 -9.26217 
0.375 -33.0469 1.98737 
0.5625 -33.7344 2.3647 
0.6875 -34.4219 2.67024 
0.8125 -35.1094 2.84644 
0.9375 -35.7969 3.19501 
1.125 -36.4844 3.49184 
1.25 -37.1719 3.75906 
1.375 -37.8438 4.07152 
1.5 -38.5469 4.32968 
1.6875 -39.2344 4.64302 
1.8125 -39.9063 4.9743 
1.9375 -40.5938 5.17131 
2.125 -41.2813 5.52838 
2.25 -41.9688 5.82095 
2.4375 -42.6094 7.13299 
2.5 -43.3594 5.55527 
2.5625 -44.0625 5.15648 
2.6875 -44.7813 4.63608 
2.75 -45.5156 3.80225 
2.8125 -46.2188 3.28271 
2.9375 -46.9531 2.50211 
3 -47.6875 1.83393 
2.25 -48.1875 -10.9868 
2.375 -48.875 -10.6376 
2.5 -49.5781 -10.5947 
2.625 -50.2656 -10.4691 
2.75 -50.9844 -10.6371 
2.9375 -51.625 -9.26236 
3.0625 -52.3281 -9.2524 
3.1875 -53.0313 -9.24736 
3.3125 -53.7344 -9.19925 
3.4375 -54.4375 -9.27045 
3.5625 -55.1406 -9.21165 
3.6875 -55.8438 -9.20965 
3.0625 -55.7031 -9.24265 
2.9375 -55 -9.27436 
2.8125 -54.2969 -9.2384 
2.6875 -53.6094 -9.2093 
2.5625 -52.8906 -9.2774 
2.4375 -52.1875 -9.43458 
2.25 -51.5313 -10.5703 
2.125 -50.8281 -10.5175 
2 -50.1563 -10.5976 
1.875 -49.4688 -10.5954 
1.8125 -48.7031 -9.34575 
2.3125 -47.5156 1.9314 
1.5625 -48 -10.5431 
2.1875 -46.7656 1.75037 
2.0625 -45.9688 2.58934 
2 -45.2188 3.39978 
1.9375 -44.5625 3.89902 
1.875 -43.8906 4.60769 
1.9375 -42.375 9.79028 
1.75 -42.4844 6.53629 
1.5625 -41.8281 6.09447 
1.375 -41.1719 5.21155 
1.25 -40.4844 4.78493 
1.125 -39.7969 4.45576 
0.9375 -39.1094 4.17197 
0.8125 -38.4219 3.9409 
0.6875 -37.7344 3.70292 
0.5 -37.0469 3.38049 
0.375 -36.3594 3.09836 
0.25 -35.6719 2.84163 
0.125 -34.9844 2.60522 
-0.0625 -34.2969 2.20232 
-0.1875 -33.6094 1.80705 
-0.875 -33.9219 -9.56924 
-1 -33.2188 -9.32072 
-1.125 -32.5156 -9.3186 
-1.125 -31.7656 -7.30003 
-1.375 -31.1094 -8.95695 
-1.5 -30.4063 -8.96613 
-1.625 -29.7188 -9.33129 
-1.8125 -29.0156 -9.36948 
-1.875 -28.3125 -9.16803 
-2.0625 -27.6094 -9.3475 
-2.1875 -26.9063 -9.38455 
-2.3125 -26.2031 -9.36877 
-2.4375 -25.5 -9.29276 
-2.5625 -24.7969 -9.32835 
-2.6875 -24.1094 -9.28886 
-2.8125 -23.4063 -9.33858 
-2.9375 -22.7031 -9.04646 
-3 -21.9844 -8.80132 
-3.1875 -21.2969 -9.06902 
-3.3125 -20.5938 -9.11716 
-3.4375 -19.8906 -9.30679 
-3.5625 -19.1875 -9.06488 
-3.6875 -18.4844 -9.31101 
-3.8125 -17.7813 -9.34245 
-3.9375 -17.0781 -9.25372 
-4.0625 -16.3594 -9.10231 
-4.1875 -15.6563 -9.04767 
-4.3125 -14.9531 -9.07736 
-3.75 -14.1406 1.82973 
-3.8125 -13.4375 2.5014 
-3.9375 -12.7344 2.34301 
-4 -12.0313 3.31251 
-4.125 -11.3438 3.3568 
-4.25 -10.6406 3.73346 
-4.3125 -9.9375 4.49487 
-4.4375 -9.23438 4.68249 
-4.5625 -8.53125 4.84363 
-4.625 -7.82813 5.90539 
-4.75 -7.14063 5.62618 
-4.9375 -6.4375 5.1206 
-5.0625 -5.75 4.77502 
-5.25 -5.04688 4.31782 
-5.375 -4.35938 3.95072 
-5.5 -3.65625 3.66883 
-5.6875 -2.95313 3.23532 
-5.8125 -2.26563 2.85937 
-6 -1.5625 2.38935 
-6.125 -0.859375 1.85472 
-6.875 -0.859375 -9.37453 
-7.0625 -0.140625 -9.53479 
-7.1875 0.5625 -9.50253 
-7.3125 1.26563 -9.52455 
-7.4375 1.96875 -9.49143 
-7.5625 2.6875 -9.51023 
-7.6875 3.39063 -9.49868 
-7.8125 4.09375 -9.56907 
-7.9375 4.79688 -9.54922 
-8.0625 5.5 -9.53642 
-8.1875 6.20313 -9.60294 
-8.3125 6.90625 -9.57416 
-8.4375 7.60938 -9.5077 
-7.8125 8.21875 1.97176 
-8.125 8.26563 -3.36824 
-8.5625 8.32813 -9.74498 
-7.9375 8.92188 1.92678 
-8 9.60938 2.39827 
-8.125 10.3125 2.47375 
-8.25 11 2.83375 
-8.3125 11.6875 3.11185 
-8.4375 12.3906 3.49506 
-8.5625 13.0781 3.71418 
-8.6875 13.7656 3.85905 
-8.75 14.4531 4.20608 
-8.875 15.1563 4.36684 
-9 15.8438 4.87167 
-9.0625 16.5313 5.10054 
-9.1875 17.2188 5.45672 
-9.3125 17.9219 5.64159 
-9.4375 18.6094 5.77185 
-9.5625 19.3125 5.72849 
-9.6875 20.0156 5.43626 
-9.875 20.7188 5.00979 
-10 21.4063 4.75574 
-10.125 22.1094 4.55942 
-10.3125 22.7969 4.26115 
-10.4375 23.5 3.93623 
-10.5625 24.2031 3.57656 
-10.75 24.9063 3.3171 
-10.875 25.6094 2.99855 
-11 26.3125 2.69537 
-11.1875 27.0156 2.42249 
-11.3125 27.7188 2.07024 
-11.4375 28.4219 1.93005 
-12.4375 28.7656 -11.4442 
-12.5 29.4688 -10.9582 
-12.625 30.1719 -11.0625 
-12.6875 30.8281 -9.87373 
-12.75 31.5156 -9.42661 
-12.875 32.2188 -9.40747 
-13.1875 32.9844 -11.2007 
-13.3125 33.6875 -11.2528 
-13.4375 34.3906 -11.2896 
-13.5625 35.0938 -11.2908 
-13.6875 35.7969 -11.1845 
-13.8125 36.5156 -11.2198 
-13.9375 37.2188 -11.2322 
-14.0625 37.9219 -11.1623 
-14.1875 38.625 -11.1816 
-14.3125 39.3281 -11.1631 
-14.4375 40.0313 -11.1142 
-14.5625 40.7344 -11.1245 
-14.6875 41.4375 -11.172 
-14.8125 42.1406 -11.219 
-14.9375 42.8438 -11.1761 
-15.0625 43.5313 -11.2224 
-15.1875 44.25 -11.2382 
-15.3125 44.9531 -11.2309 
-15.4375 45.6563 -11.2357 
-15.5625 46.3594 -11.2626 
-15.75 47.0625 -11.284 
-15.875 47.7656 -11.2902 
-16 48.4844 -11.3008 
-16.125 49.1875 -11.3432 
-16.25 49.8906 -11.3928 
-16.375 50.5938 -11.31 
-16.5 51.3125 -11.3437 
-16.625 52 -11.2605 
-16.75 52.7031 -11.3035 
-16.875 53.4063 -11.2912 
-17 54.125 -11.2781 
-17.125 54.8281 -11.2969 
-17.25 55.5469 -11.3302 
-17.625 55.4375 -11.2972 
-17.5 54.7188 -11.2984 
-17.375 54.0156 -11.2991 
-17.25 53.3125 -11.2572 
-17.125 52.6094 -11.3141 
-17 51.9063 -11.281 
-16.875 51.2031 -11.3446 
-16.75 50.5 -11.3407 
-16.625 49.7969 -11.3859 
-16.5 49.0781 -11.3242 
-16.375 48.375 -11.3414 
-16.25 47.6719 -11.2684 
-16.125 46.9688 -11.3296 
-16 46.2656 -11.2707 
-15.875 45.5625 -11.2935 
-15.75 44.8438 -11.2064 
-15.625 44.1406 -11.2658 
-15.5 43.4375 -11.1753 
-15.375 42.7344 -11.209 
-15.25 42.0313 -11.1875 
-15.125 41.3125 -11.1479 
-15 40.6094 -11.1753 
-14.875 39.9063 -11.1647 
-14.75 39.2188 -11.176 
-14.625 38.5156 -11.232 
-14.5 37.7969 -11.1754 
-14.375 37.0938 -11.1709 
-14.25 36.3906 -11.2032 
-14.125 35.6719 -11.2278 
-14 34.9688 -11.2293 
-13.875 34.2656 -11.2376 
-13.75 33.5625 -11.2256 
-13.625 32.875 -11.1857 
-13.375 32.1094 -9.42993 
-13.25 31.4063 -9.38699 
-13.125 30.7031 -9.71219 
-13.125 30.0469 -11.0604 
-13 29.3438 -11.0085 
-12.875 28.6406 -10.9687 
-11.8125 27.5938 1.90291 
-12.6875 27.9219 -10.8761 
-11.6875 26.9063 1.98107 
-11.5 26.1875 2.39589 
-11.375 25.4844 2.69172 
-11.25 24.7813 3.04044 
-11.0625 24.0781 3.25258 
-10.9375 23.3906 3.54483 
-10.8125 22.6875 3.88499 
-10.625 21.9844 4.19308 
-10.5 21.2969 4.44682 
-10.375 20.5938 4.72824 
-10.25 19.8906 4.98775 
-10.0625 19.1875 5.45192 
-9.9375 18.4844 5.72216 
-9.8125 17.7813 5.83835 
-9.6875 17.0938 5.55647 
-9.5625 16.4063 5.32743 
-9.5 15.7188 5.00906 
-9.375 15.0313 4.73355 
-9.25 14.3281 4.45567 
-9.1875 13.6406 4.09868 
-9.0625 12.9531 3.90894 
-8.9375 12.25 3.79457 
-8.875 11.5781 3.36922 
-8.75 10.875 3.15839 
-8.625 10.1875 2.8508 
-8.5 9.5 2.62337 
-8.4375 8.79688 2.3116 
-8.3125 8.10938 1.96274 
-8.1875 7.40625 1.90364 
-8.5625 7.45313 -3.37895 
-9 7.5 -9.41649 
-8.5 6.76563 -4.32779 
-8.875 6.79688 -9.45821 
-8.75 6.10938 -9.59887 
-8.625 5.40625 -9.62703 
-8.5 4.70313 -9.48532 
-8.375 4 -9.52251 
-8.25 3.29688 -9.52441 
-8.125 2.59375 -9.54342 
-8 1.89063 -9.52456 
-7.875 1.1875 -9.52017 
-7.75 0.484375 -9.54292 
-6.8125 -0.234375 2.16783 
-7.5625 -0.21875 -9.44794 
-6.6875 -0.9375 1.95148 
-6.4375 -1.625 4.02876 
-6.3125 -2.3125 4.48144 
-6.1875 -3.01563 3.84293 
-6.0625 -3.70313 3.75318 
-5.9375 -4.40625 4.18208 
-5.8125 -5.09375 4.56419 
-5.625 -5.79688 4.9991 
-5.5 -6.48438 5.41947 
-5.3125 -7.1875 5.77794 
-5.25 -7.875 5.64851 
-5.125 -8.5625 5.11312 
-5 -9.26563 4.79498 
-4.9375 -9.95313 4.32027 
-4.875 -10.6563 3.80846 
-4.75 -11.3438 3.49902 
-4.625 -12.0469 3.07806 
-4.5625 -12.75 2.52024 
-4.5 -13.4531 1.98269 
-4.375 -14.1563 1.87434 
-5.0625 -14.2813 -9.30869 
-4.9375 -14.9688 -9.11756 
-4.8125 -15.6719 -9.01066 
-4.6875 -16.375 -9.00553 
-4.5625 -17.0781 -9.30157 
-4.4375 -17.7813 -9.26318 
-4.3125 -18.4844 -8.94772 
-4.1875 -19.1719 -8.83367 
-4.0625 -19.8906 -9.07817 
-3.9375 -20.5781 -8.96327 
-3.75 -21.2813 -8.35193 
-3.6875 -21.9844 -9.04631 
-3.5625 -22.7031 -9.2915 
-3.4375 -23.4063 -9.35686 
-3.3125 -24.0938 -8.81133 
-3.1875 -24.7969 -9.33187 
-3.0625 -25.5 -9.37595 
-2.9375 -26.2031 -9.37975 
-2.8125 -26.9219 -9.31574 
-2.6875 -27.625 -9.3361 
-2.5625 -28.3125 -9.36352 
-2.4375 -29.0156 -9.3882 
-2.3125 -29.7188 -9.34735 
-2.1875 -30.4219 -9.30375 
-2.0625 -31.125 -9.32193 
-1.8125 -31.7813 -7.22893 
-1.6875 -32.4688 -7.1293 
-1.6875 -33.2344 -9.32187 
-1.5625 -33.9375 -9.3334 
-0.75 -34.3281 1.74252 
-1.4375 -34.6406 -9.27221 
-0.625 -35.0313 1.87638 
-0.5 -35.7188 2.34444 
-0.3125 -36.4063 2.57632 
-0.1875 -37.0938 2.95557 
-0.0625 -37.7813 3.17811 
0.125 -38.4531 3.52831 
0.25 -39.1406 3.82908 
0.375 -39.8281 4.04792 
0.5 -40.5156 4.34721 
0.6875 -41.2031 4.66666 
0.875 -41.8281 6.54134 
0.9375 -42.5625 5.4114 
1.25 -43.1563 8.02938 
1.0625 -43.2813 4.80477 
1.125 -43.9844 4.52586 
1.25 -44.7031 3.95305 
1.3125 -45.4219 3.22588 
1.375 -46.1406 2.55672 
1.5 -46.8594 1.82575 
0.75 -47.3594 -11.0477 
0.875 -48.0469 -10.5893 
1.0625 -48.7031 -9.28883 
1.1875 -49.4063 -9.40524 
1.3125 -50.1094 -9.31953 
1.375 -50.875 -10.656 
1.5 -51.5781 -10.6193 
1.625 -52.2813 -10.5499 
1.8125 -52.9063 -9.06778 
1.9375 -53.625 -9.25159 
2.0625 -54.3281 -9.26059 
2.1875 -55.0313 -9.25424 
2.3125 -55.7188 -9.21249 
1.625 -55.4063 -9.26798 
1.5 -54.7031 -9.27193 
1.375 -54.0156 -9.26067 
1.25 -53.3125 -9.28136 
1.125 -52.5938 -8.908 
0.9375 -51.9531 -10.5797 
0.8125 -51.2344 -10.4223 
0.75 -50.5 -9.53197 
0.625 -49.7813 -9.31128 
0.5 -49.0781 -9.31441 
0.375 -48.375 -9.32212 
0.1875 -47.7188 -10.4755 
0.75 -46.5469 1.88253 
0 -47.0313 -11.0657 
0.6875 -45.8281 2.58645 
0.625 -45.1094 3.26344 
0.5 -44.4063 3.32748 
0.375 -43.6875 3.92314 
0.3125 -42.9531 4.94801 
0.1875 -42.2656 4.83424 
0.0625 -41.5625 4.54148 
-0.125 -40.8906 4.19429 
-0.25 -40.2031 3.76295 
-0.375 -39.5156 3.60622 
-0.5625 -38.8438 3.30795 
-0.6875 -38.1563 3.01486 
-0.8125 -37.4688 2.72481 
-1 -36.7813 2.43494 
-1.125 -36.0938 2.13803 
-1.25 -35.3906 1.8517 
-1.9375 -35.7188 -9.27989 
-2.0625 -35.0156 -9.27457 
-2.1875 -34.3125 -9.29353 
-2.3125 -33.6094 -9.31705 
-2.4375 -32.9063 -9.28276 
-2.4375 -32.1563 -7.29936 
-2.6875 -31.5 -9.30032 
-2.8125 -30.7969 -9.3222 
-2.9375 -30.0938 -9.31617 
-3.125 -29.3906 -9.35468 
-3.25 -28.6875 -9.34023 
-3.375 -27.9844 -9.33303 
-3.5 -27.2813 -9.40756 
-3.625 -26.5781 -9.32715 
-3.75 -25.875 -9.34836 
-3.875 -25.1719 -9.24722 
-4 -24.4688 -9.31997 
-4.125 -23.7656 -9.34754 
-4.125 -23.0156 -6.96445 
-4.3125 -22.3594 -8.73569 
-4.4375 -21.6406 -8.38791 
-4.5625 -20.9375 -8.33387 
-4.75 -20.25 -8.94241 
-4.875 -19.5469 -9.25891 
-5 -18.8438 -9.35072 
-5.125 -18.1406 -9.38972 
-5.25 -17.4375 -9.33109 
-5.375 -16.7344 -9.35181 
-5.5 -16.0313 -9.15771 
-5.625 -15.3281 -9.35199 
-5.75 -14.625 -9.29662 
-5.1875 -13.8125 1.72513 
-5.875 -13.9219 -8.7 
-5.3125 -13.125 1.85638 
-5.375 -12.4219 2.47153 
-5.5 -11.7188 2.62788 
-5.625 -11.0156 3.07922 
-5.6875 -10.3125 3.80308 
-5.8125 -9.60938 4.24767 
-5.875 -8.92188 4.69279 
-6 -8.23438 4.91849 
-6.0625 -7.53125 5.52439 
-6.1875 -6.82813 5.96328 
-6.3125 -6.14063 5.51781 
-6.5 -5.4375 5.09274 
-6.625 -4.75 4.68806 
-6.8125 -4.04688 4.24638 
-6.9375 -3.35938 4.13131 
-7 -2.67188 4.80743 
-7.125 -1.96875 4.59625 
-7.3125 -1.28125 4.0915 
-7.5625 -0.578125 2.12682 
-7.6875 0.109375 1.96451 
-8.4375 0.140625 -9.43451 
-8.625 0.84375 -9.55901 
-8.75 1.54688 -9.49626 
-8.875 2.25 -9.53241 
-9 2.96875 -9.52859 
-9.125 3.67188 -9.51678 
-9.25 4.375 -9.57694 
-9.375 5.07813 -9.55689 
-9.25 5.75 -5.43205 
-9.4375 5.76563 -8.49457 
-8.875 6.39063 1.93484 
-8.9375 7.09375 2.1731 
-9.0625 7.78125 2.13957 
-9.1875 8.46875 2.76263 
-9.3125 9.15625 3.00175 
-9.375 9.84375 3.33868 
-9.5 10.5469 3.13498 
-9.625 11.2344 3.81192 
-9.6875 11.9219 4.17253 
-9.8125 12.625 4.33929 
-9.9375 13.3125 4.73064 
-10 14 5.00284 
-10.125 14.7031 5.20071 
-10.25 15.3906 5.51117 
-10.375 16.0781 5.77703 
-10.5 16.7813 5.79675 
-10.625 17.4844 5.51807 
-10.75 18.1719 5.26957 
-10.9375 18.875 4.87946 
-11.0625 19.5781 4.62436 
-11.1875 20.2813 4.27261 
-11.375 20.9844 3.97344 
-11.5 21.6875 3.73212 
-11.625 22.3906 3.54848 
-11.8125 23.0938 3.10893 
-11.9375 23.7969 2.83419 
-12.125 24.5 2.58211 
-12.25 25.2031 2.23329 
-12.375 25.9063 1.85747 
-13.4375 26.9063 -10.9387 
-13.5625 27.6094 -10.9895 
-13.6875 28.3125 -11.0224 
-13.8125 29.0156 -11.0026 
-13.9375 29.7344 -11.0471 
-14 30.4063 -9.82587 
-14.0625 31.0938 -9.34666 
-14.1875 31.7969 -9.34761 
-14.5 32.5469 -11.2031 
-14.625 33.25 -11.1208 
-14.75 33.9688 -11.1875 
-14.875 34.6719 -11.1342 
-15 35.375 -11.1851 
-15.125 36.0781 -11.161 
-15.25 36.7813 -11.1735 
-15.375 37.5 -11.1708 
-15.5 38.2031 -11.1525 
-15.625 38.9063 -11.1714 
-15.75 39.6094 -11.1079 
-15.875 40.3125 -11.0962 
-16 41.0156 -11.119 
-16.125 41.7188 -11.0813 
-16.25 42.4219 -11.1401 
-16.375 43.1406 -11.2532 
-16.5 43.8438 -11.1796 
-16.625 44.5469 -11.1654 
-16.75 45.25 -11.1282 
-16.875 45.9531 -11.1552 
-17.0625 46.6563 -11.2563 
-17.1875 47.375 -11.2922 
-17.3125 48.0781 -11.263 
-17.4375 48.7813 -11.3929 
-17.5625 49.4844 -11.3209 
-17.6875 50.1875 -11.3402 
-17.8125 50.8906 -11.2423 
-17.9375 51.6094 -11.2858 
-18.0625 52.2969 -11.2642 
-18.1875 53.0156 -11.2719 
-18.3125 53.7188 -11.3144 
-18.4375 54.4063 -11.2219 
-18.5625 55.125 -11.328 
-18.6875 55.8125 -11.0502 
-19.125 55.5938 -11.2374 
-19 54.8906 -11.2859 
-18.875 54.1875 -11.2568 
-18.75 53.4688 -11.2448 
-18.625 52.7656 -11.2572 
-18.5 52.0625 -11.2247 
-18.375 51.3594 -11.2886 
-18.25 50.6563 -11.2776 
-18.125 49.9531 -11.3403 
-18 49.25 -11.3925 
-17.875 48.5469 -11.3453 
-17.75 47.8438 -11.2873 
-17.625 47.1406 -11.289 
-17.5 46.4219 -11.2154 
-17.375 45.7188 -11.1935 
-17.25 45.0156 -11.1712 
-17.125 44.3125 -11.2059 
-17 43.6094 -11.2105 
-16.875 42.8906 -11.1872 
-16.75 42.1875 -11.1634 
-16.625 41.4844 -11.124 
-16.5 40.7813 -11.0916 
-16.375 40.0781 -11.1559 
-16.25 39.375 -11.1005 
-16.125 38.6563 -11.1492 
-16 37.9531 -11.1752 
-15.875 37.25 -11.178 
-15.75 36.5469 -11.1209 
-15.625 35.8438 -11.1303 
-15.5 35.1406 -11.1617 
-15.3125 34.4375 -11.1031 
-15.25 33.7344 -11.1412 
-15.125 33.0313 -11.149 
-15 32.3281 -11.1639 
-14.75 31.5781 -9.62971 
-14.6875 30.9063 -10.9138 
-14.5625 30.2031 -11.0568 
-14.4375 29.5 -11.05 
-14.3125 28.7969 -11.0527 
-14.1875 28.0938 -11.0126 
-14.0625 27.3906 -10.9721 
-13.9375 26.6875 -10.9237 
-12.9375 25.6719 1.96231 
-13.8125 25.9844 -10.8823 
-12.8125 24.9688 1.82729 
-12.625 24.2656 2.21865 
-12.5 23.5625 2.5554 
-12.375 22.8594 2.84285 
-12.1875 22.1563 3.12574 
-12.0625 21.4531 3.41151 
-11.9375 20.75 3.7749 
-11.75 20.0469 4.08897 
-12 20.1094 1.14212 
-11.625 19.3594 4.33896 
-11.5 18.6563 4.61664 
-11.3125 17.9531 4.92722 
-11.1875 17.2656 5.13593 
-11.0625 16.5625 5.45473 
-10.875 15.8594 5.78881 
-10.8125 15.1719 5.61763 
-10.6875 14.4688 5.42707 
-10.5625 13.7969 5.1098 
-10.5 13.0938 4.89016 
-10.375 12.4063 4.61848 
-10.25 11.7188 4.3347 
-10.125 11.0156 4.09142 
-10.0625 10.3281 3.79355 
-9.9375 9.64063 3.57364 
-9.8125 8.95313 3.39394 
-9.75 8.26563 3.00013 
-9.625 7.5625 2.7314 
-9.5 6.875 2.52048 
-9.4375 6.1875 2.21525 
-9.3125 5.48438 1.86065 
-9.6875 4.84375 -5.2468 
-9.9375 4.85938 -8.97225 
-9.8125 4.17188 -9.54788 
-9.6875 3.46875 -9.5824 
-9.5625 2.76563 -9.5517 
-9.4375 2.04688 -9.52576 
-9.3125 1.34375 -9.60126 
-9.1875 0.640625 -9.5294 
-8.3125 -0.078125 1.89684 
-8.1875 -0.765625 2.45321 
-8 -1.46875 2.91528 
-7.8125 -2.15625 3.75394 
-7.6875 -2.85938 4.40374 
-7.5 -3.54688 4.75987 
-7.375 -4.25 4.52581 
-7.25 -4.9375 4.88531 
-7.125 -5.625 5.35491 
-6.9375 -6.32813 5.78754 
-6.8125 -7.01563 5.58266 
-6.75 -7.71875 5.1937 
-6.625 -8.42188 4.88493 
-6.5625 -9.10938 4.40948 
-6.8125 -9.14063 0.69812 
-6.4375 -9.8125 3.6878 
-6.375 -10.5156 3.56486 
-6.25 -11.2031 3.07594 
-6.1875 -11.9063 2.6246 
-6.0625 -12.6094 1.98926 
-5.9375 -13.2969 1.91772 
-6.6875 -13.4063 -9.43471 
-6.5625 -14.1094 -9.27659 
-6.4375 -14.8125 -9.41952 
-6.3125 -15.5156 -9.38759 
-6.1875 -16.2188 -9.03377 
-6.0625 -16.9219 -9.38967 
-5.9375 -17.625 -9.38642 
-5.8125 -18.3281 -9.40015 
-5.6875 -19.0313 -9.4059 
-5.5625 -19.7344 -9.34398 
-5.4375 -20.4219 -9.19441 
-5.25 -21.125 -8.40639 
-5.125 -21.8281 -8.84162 
-4.875 -22.5 -6.83892 
-4.75 -23.2031 -6.84709 
-4.625 -23.8906 -6.87981 
-4.6875 -24.6406 -9.32957 
-4.5625 -25.3438 -9.28164 
-4.4375 -26.0469 -9.23828 
-4.3125 -26.75 -9.36402 
-4.1875 -27.4531 -9.37701 
-4.0625 -28.1563 -9.37227 
-3.9375 -28.8594 -9.33455 
-3.8125 -29.5781 -9.29396 
-3.6875 -30.2656 -9.32539 
-3.5625 -30.9688 -9.33127 
-3.4375 -31.6719 -9.3318 
-3.3125 -32.375 -9.31187 
-3.1875 -33.0781 -9.32155 
-3.0625 -33.7969 -9.33813 
-2.9375 -34.5 -9.35936 
-2.625 -35.125 -6.77367 
-2.6875 -35.8906 -9.35583 
-1.875 -36.2656 2.02491 
-2.5625 -36.5938 -9.35084 
-1.75 -36.9688 1.73103 
-1.625 -37.6563 2.20018 
-1.4375 -38.3438 2.51279 
-1.3125 -39.0156 2.87066 
-1.1875 -39.7031 3.14158 
-1 -40.3906 3.45284 
-0.875 -41.0781 3.63511 
-0.75 -41.7656 3.97488 
-0.625 -42.4531 4.35758 
-0.4375 -43.1406 4.55612 
-0.375 -43.8594 3.78074 
-0.3125 -44.5781 3.21497 
-0.1875 -45.2969 2.56999 
-0.125 -46.0156 1.80101 
-0.875 -46.4844 -10.5465 
-0.75 -47.1875 -10.565 
-0.625 -47.8906 -10.6378 
-0.4375 -48.5625 -9.76589 
-0.3125 -49.25 -9.36212 
-0.1875 -49.9531 -9.38372 
-0.125 -50.7188 -10.6606 
0 -51.4063 -10.5494 
0.25 -52.0469 -9.11008 
0.3125 -52.7656 -9.31185 
0.4375 -53.4688 -9.30662 
0.5625 -54.1719 -9.27579 
0.6875 -54.875 -9.31185 
0.8125 -55.5781 -9.26023 
0.25 -55.9063 -9.33017 
0.125 -55.2031 -9.27464 
0 -54.5 -9.27108 
-0.125 -53.7813 -9.29457 
-0.25 -53.0938 -9.31004 
-0.375 -52.375 -9.27537 
-0.4375 -51.6719 -8.99091 
-0.6875 -51.0313 -10.5448 
-0.8125 -50.3281 -10.6109 
-0.875 -49.5781 -9.34621 
-1.0625 -48.9063 -10.5999 
-1.1875 -48.2031 -10.6051 
-1.3125 -47.5 -10.5498 
-1.4375 -46.7969 -10.3596 
-0.875 -45.6406 1.75774 
-1.0625 -44.2031 2.87035 
-1.125 -43.4844 3.6082 
-1.1875 -42.7656 4.14759 
-1.375 -42.0781 3.85465 
-1.5 -41.3906 3.52478 
-1.625 -40.7031 3.34972 
-1.8125 -40.0313 2.84132 
-1.9375 -39.3438 2.67226 
-2.0625 -38.6563 2.34422 
-2.25 -37.9844 1.72495 
-2.375 -37.2813 1.89865 
-3.0625 -37.625 -9.35002 
-3.1875 -36.9063 -9.36313 
-3.125 -36.125 -6.73685 
-3.25 -35.4219 -6.78642 
-3.375 -34.7188 -6.80304 
-3.6875 -34.0938 -9.33135 
-3.8125 -33.3906 -9.35465 
-3.9375 -32.6875 -9.34268 
-4.0625 -31.9844 -9.27792 
-4.1875 -31.2813 -9.35483 
-4.3125 -30.5781 -9.32658 
-4.4375 -29.875 -9.33531 
-4.5625 -29.1719 -9.35103 
-4.6875 -28.4688 -9.35391 
-4.8125 -27.7656 -9.31655 
-4.9375 -27.0625 -9.3958 
-5.0625 -26.3594 -9.15312 
-5.1875 -25.6563 -9.37863 
-5.1875 -24.9063 -7.00413 
-5.3125 -24.2031 -6.84993 
-5.4375 -23.5 -6.8174 
-5.5625 -22.7969 -6.78444 
-5.6875 -22.0938 -6.85578 
-5.9375 -21.4219 -8.98025 
-6.125 -20.7344 -9.41698 
-6.25 -20.0313 -9.36742 
-6.375 -19.3281 -9.35725 
-6.5 -18.625 -9.43144 
-6.625 -17.9219 -9.38789 
-6.75 -17.2031 -9.35146 
-6.875 -16.5156 -9.39182 
-7 -15.8125 -9.39191 
-7.125 -15.1094 -9.42897 
-7.25 -14.4063 -9.43564 
-7.375 -13.7031 -9.38961 
-6.75 -12.8906 1.90231 
-7.5 -13 -9.4305 
-6.875 -12.2031 2.04638 
-7 -11.5 2.66946 
-7.125 -10.8125 2.63201 
-7.1875 -10.1094 3.00916 
-7.3125 -9.40625 3.43914 
-7.375 -8.70313 3.99658 
-7.5 -8 4.80415 
-7.5625 -7.3125 5.2802 
-7.6875 -6.60938 5.37251 
-7.8125 -5.92188 5.79991 
-7.9375 -5.23438 5.48964 
-8.0625 -4.53125 4.93555 
-8.25 -3.84375 4.61385 
-8.375 -3.14063 4.27003 
-8.5625 -2.45313 3.83194 
-8.6875 -1.76563 3.36939 
-8.875 -1.0625 3.11652 
-9 -0.359375 2.5127 
-9.1875 0.328125 2.02645 
-10.0625 1.0625 -9.50166 
-10.1875 1.76563 -9.61058 
-10.3125 2.46875 -9.59193 
-10.4375 3.17188 -9.50555 
-9.8125 3.8125 1.80014 
-10.1875 3.84375 -3.98877 
-10.5625 3.875 -9.41376 
-9.9375 4.51563 2.03153 
-10.0625 5.20313 2.37086 
-10.125 5.90625 2.81012 
-10.25 6.59375 3.07787 
-10.375 7.29688 2.6479 
-10.4375 7.98438 3.5176 
-10.5625 8.6875 3.63713 
-10.6875 9.375 3.80932 
-10.8125 10.0625 4.29584 
-10.875 10.75 4.57353 
-11 11.4531 4.68727 
-11.125 12.1406 5.15278 
-11.25 12.8281 5.28227 
-11.3125 13.5156 5.59914 
-11.4375 14.2188 5.78914 
-11.5625 14.9063 5.5686 
-11.6875 15.6094 5.40826 
-11.875 16.2969 5.12887 
-12 17 4.77501 
-12.1875 17.7031 4.41176 
-12.3125 18.4063 4.05884 
-12.4375 19.1094 3.88074 
-12.625 19.8125 3.50379 
-12.75 20.5156 3.28923 
-12.875 21.2031 3.08021 
-13.0625 21.9219 2.70707 
-13.1875 22.625 2.40164 
-13.3125 23.3125 2.07164 
-13.5 24.0156 1.94395 
-14.375 24.3125 -11.1831 
-14.5 25.0156 -10.8938 
-14.625 25.7188 -10.9057 
-14.75 26.4219 -10.9821 
-14.875 27.125 -10.9509 
-15 27.8281 -11.0215 
-15.125 28.5313 -10.9867 
-15.3125 29.25 -11.0763 
-15.4375 29.9531 -11.0656 
-15.5625 30.6563 -11.0719 
-15.6875 31.3594 -11.053 
-15.8125 32.0625 -11.0538 
-15.9375 32.7656 -11.1112 
-16.0625 33.4844 -11.0833 
-16.1875 34.1875 -11.135 
-16.3125 34.8906 -11.156 
-16.4375 35.5938 -11.1097 
-16.5625 36.2969 -11.1526 
-16.6875 37 -11.1432 
-16.8125 37.7031 -11.1603 
-16.9375 38.4063 -11.0998 
-17.0625 39.1094 -11.1109 
-17.1875 39.8125 -11.017 
-17.3125 40.5313 -11.0793 
-17.4375 41.2344 -11.1192 
-17.625 41.9375 -11.1363 
-17.75 42.6406 -11.0781 
-17.875 43.3438 -11.1318 
-18 44.0469 -11.14 
-18.125 44.75 -11.1649 
-18.25 45.4688 -11.1794 
-18.375 46.1719 -11.2363 
-18.5 46.875 -11.2926 
-18.625 47.5781 -11.2962 
-18.75 48.2813 -11.3567 
-18.875 48.9844 -11.2923 
-19 49.7031 -11.3469 
-19.125 50.4063 -11.2937 
-19.25 51.1094 -11.2904 
-19.375 51.7969 -11.1693 
-19.5 52.5156 -11.1696 
-19.625 53.2344 -11.2664 
-19.75 53.9375 -11.2262 
-19.9375 54.6406 -11.2381 
-20.0625 55.3438 -11.2543 
-20.5 55.6719 -11.2358 
-20.375 54.9531 -11.1579 
-20.25 54.25 -11.2535 
-20.125 53.5469 -11.2391 
-20 52.8438 -11.242 
-19.875 52.1406 -11.2688 
-19.75 51.4375 -11.1931 
-19.625 50.7344 -11.2838 
-19.5 50.0313 -11.2672 
-19.375 49.3281 -11.2825 
-19.25 48.625 -11.3471 
-19.125 47.9219 -11.2496 
-19 47.2188 -11.254 
-18.875 46.5 -11.2453 
-18.75 45.7969 -11.2236 
-18.625 45.0938 -11.2018 
-18.5 44.3906 -11.1419 
-18.375 43.6875 -11.1361 
-18.25 42.9844 -11.1723 
-18.125 42.2813 -11.1189 
-18 41.5625 -11.0873 
-17.875 40.8594 -11.1401 
-17.75 40.1563 -11.1177 
-17.625 39.4531 -11.0996 
-17.5 38.75 -11.1207 
-17.375 38.0469 -11.0869 
-17.25 37.3438 -11.0975 
-17.125 36.6406 -11.1151 
-17 35.9219 -11.1098 
-16.875 35.2344 -11.1487 
-16.75 34.5313 -11.1351 
-16.625 33.8125 -11.1211 
-16.5 33.1094 -11.1517 
-16.375 32.4063 -11.0771 
-16.1875 31.6875 -11.0546 
-16.0625 30.9844 -11.0686 
-15.9375 30.2813 -11.0972 
-15.8125 29.5781 -10.9981 
-15.6875 28.8906 -11.0284 
-15.5625 28.1719 -11.0084 
-15.4375 27.4688 -11.0055 
-15.3125 26.7656 -10.9722 
-15.1875 26.0625 -10.9161 
-15.0625 25.3594 -10.8895 
-14.9375 24.6406 -10.8773 
-14.8125 23.9531 -10.8048 
-13.8125 22.9688 1.85961 
-13.625 22.2656 2.26942 
-13.5 21.5625 2.48535 
-13.375 20.8594 2.73409 
-13.25 20.1563 3.08295 
-13.0625 19.4531 3.35252 
-12.9375 18.75 3.69727 
-12.8125 18.0625 3.98268 
-12.625 17.3594 4.29831 
-12.5 16.6563 4.54725 
-12.375 15.9531 4.90131 
-12.1875 15.2656 5.12853 
-12.0625 14.5625 5.32635 
-11.9375 13.8594 5.7763 
-11.8125 13.1719 5.64609 
-11.6875 12.4844 5.41937 
-11.5625 11.7969 5.08833 
-11.5 11.1094 4.76009 
-11.375 10.4063 4.62173 
-11.25 9.71875 4.30184 
-11.1875 9.03125 4.04702 
-11.0625 8.32813 3.83511 
-10.9375 7.64063 3.6285 
-10.8125 6.95313 3.36774 
-10.75 6.25 3.07737 
-10.625 5.5625 2.81728 
-10.5 4.875 2.53519 
-10.4375 4.17188 2.17628 
-10.3125 3.48438 1.97726 
-10.1875 2.79688 2.02808 
-10.5625 2.8125 -3.97284 
-10.9375 2.84375 -9.40534 
-10.8125 2.14063 -9.53391 
-10.6875 1.4375 -9.54988 
-9.8125 0.703125 1.94796 
-9.5625 0 4.07616 
-9.4375 -0.703125 4.25362 
-9.375 -1.375 3.28764 
-9.1875 -2.0625 3.74258 
-9.0625 -2.76563 4.13799 
-8.9375 -3.45313 4.5115 
-8.75 -4.15625 4.94995 
-8.625 -4.85938 5.28677 
-8.4375 -5.54688 5.73636 
-8.3125 -6.25 5.66053 
-8.25 -6.9375 5.25102 
-8.125 -7.64063 4.7299 
-8.0625 -8.32813 4.40347 
-7.9375 -9.03125 3.91315 
-7.875 -9.73438 3.52034 
-7.75 -10.4219 3.0606 
-7.6875 -11.125 2.70602 
-7.5625 -11.8125 2.12506 
-7.4375 -12.5156 1.91823 
-8.1875 -12.6094 -9.38924 
-8.0625 -13.3281 -9.45595 
-7.9375 -14.0156 -9.42757 
-7.8125 -14.7188 -9.39864 
-7.6875 -15.4219 -9.43665 
-7.5625 -16.125 -9.43683 
-7.4375 -16.8281 -9.42159 
-7.3125 -17.5313 -9.39106 
-7.1875 -18.2344 -9.41236 
-7.0625 -18.9375 -9.40084 
-6.9375 -19.6406 -9.38888 
-6.8125 -20.3438 -9.39391 
-6.6875 -21.0469 -9.39362 
-6.5625 -21.75 -9.40778 
-6.25 -22.4063 -6.83453 
-6.125 -23.1094 -6.83044 
-6 -23.7969 -6.82589 
-5.875 -24.5 -6.82833 
-5.75 -25.2031 -6.79549 
-5.6875 -25.9219 -7.03895 
-5.6875 -26.6719 -9.31795 
-5.5625 -27.375 -9.15421 
-5.4375 -28.0781 -9.37629 
-5.3125 -28.7813 -9.26665 
-5.1875 -29.4844 -9.34832 
-5.0625 -30.1875 -9.33992 
-4.9375 -30.8906 -9.34846 
-4.8125 -31.5938 -9.3093 
-4.6875 -32.2969 -9.34196 
-4.5625 -33 -9.3318 
-4.4375 -33.7031 -9.34861 
-4.125 -34.3281 -6.79317 
-4 -35.0313 -6.75687 
-3.875 -35.7344 -6.78474 
-3.75 -36.4375 -6.82235 
-3.625 -37.1406 -6.77229 
-3.6875 -37.9063 -9.36325 
-2.875 -38.2656 1.83138 
-3.5625 -38.6094 -9.3247 
-2.75 -38.9688 1.82275 
-2.625 -39.6563 2.25819 
-2.4375 -40.3438 2.60694 
-2.3125 -41.0156 2.88873 
-2.1875 -41.7031 3.1734 
-2.0625 -42.3906 3.4062 
-1.875 -43.0781 3.62698 
-1.8125 -43.7969 3.24036 
-1.6875 -44.5156 2.4729 
-1.625 -45.25 1.7706 
-2.3125 -45.6719 -9.79288 
-2.1875 -46.3594 -9.36562 
-2.0625 -47.0625 -9.36184 
-1.9375 -47.7656 -9.46459 
-1.875 -48.5156 -10.6134 
-1.75 -49.2188 -10.6034 
-1.625 -49.9063 -10.6329 
-1.5 -50.6094 -10.607 
-1.3125 -51.25 -9.13589 
-1.1875 -51.9688 -9.27598 
-1.0625 -52.6719 -9.30355 
-0.9375 -53.3906 -9.30305 
-0.8125 -54.0938 -9.30968 
-0.6875 -54.7969 -9.30853 
-0.5625 -55.5 -9.30701 
-1.1875 -55.5938 -9.305 
-1.3125 -54.8906 -9.32645 
-1.4375 -54.1875 -9.30752 
-1.5625 -53.4688 -9.25851 
-1.6875 -52.7656 -9.30367 
-1.8125 -52.0625 -9.25618 
-1.9375 -51.3438 -8.99918 
-2.0625 -50.6563 -9.33441 
-2.25 -50.0156 -10.6333 
-2.4375 -49.2969 -10.5866 
-2.4375 -48.5469 -9.32879 
-2.5625 -47.8438 -9.31106 
-2.6875 -47.1406 -9.36763 
-2.8125 -46.4375 -9.32669 
-3 -45.7344 -9.30016 
-2.4375 -44.625 1.7618 
-2.5625 -43.9219 2.14756 
-2.5625 -43.1563 3.59113 
-2.75 -42.4844 3.10372 
-2.875 -41.8125 2.66168 
-3 -41.125 2.57884 
-3.1875 -40.4375 2.18737 
-3.3125 -39.75 1.8187 
-4.125 -39.4063 -9.38139 
-4.25 -38.6875 -9.32085 
-4.25 -37.9063 -6.77779 
-4.375 -37.2031 -6.78851 
-4.5 -36.5 -6.77142 
-4.625 -35.8125 -6.80613 
-4.75 -35.1094 -6.75318 
-4.875 -34.4063 -6.73471 
-5 -34.4688 -9.28156 
-5.125 -33.7656 -9.35473 
-5.25 -33.0781 -9.27319 
-5.375 -32.375 -9.33556 
-5.5 -31.6719 -9.32294 
-5.6875 -30.9688 -9.39964 
-5.8125 -30.25 -9.39359 
-5.9375 -29.5469 -9.32732 
-6.0625 -28.8438 -9.34278 
-6.1875 -28.1406 -9.32052 
-6.3125 -27.4375 -9.31268 
-6.25 -26.6719 -6.8247 
-6.375 -25.9844 -6.79111 
-6.5 -25.2813 -6.78195 
-6.625 -24.5781 -6.78735 
-6.75 -23.875 -6.78732 
-6.875 -23.1719 -6.81673 
-7.1875 -22.5156 -9.41525 
-7.3125 -21.8125 -9.47632 
-7.4375 -21.1094 -9.3725 
-7.5625 -20.4063 -9.43512 
-7.6875 -19.7031 -9.45248 
-7.8125 -19 -9.43202 
-7.9375 -18.3125 -9.41857 
-8.0625 -17.5938 -9.42711 
-8.1875 -16.8906 -9.44277 
-8.3125 -16.1875 -9.38564 
-8.5 -15.4844 -9.40785 
-8.625 -14.7813 -9.41466 
-8.75 -14.0781 -9.42104 
-8.875 -13.375 -9.41956 
-9 -12.6719 -9.44016 
-8.375 -11.875 1.91215 
-9.125 -11.9688 -9.81442 
-8.5 -11.1719 1.99435 
-8.625 -10.4688 2.16953 
-8.6875 -9.76563 2.6666 
-8.75 -9.07813 3.60818 
-8.875 -8.375 3.64711 
-9 -7.6875 4.11559 
-9.125 -7 4.36009 
-9.1875 -6.29688 5.31078 
-9.3125 -5.59375 5.14206 
-9.375 -4.90625 5.69485 
-9.5625 -4.20313 5.38028 
-9.6875 -3.51563 4.82222 
-9.875 -2.8125 4.35152 
-10 -2.125 4.12546 
-10.125 -1.4375 4.39104 
-10.1875 -0.734375 4.78145 
-10.3125 -0.046875 4.69383 
-10.625 0.65625 2.42843 
-10.75 1.35938 1.92793 
-10.875 2.04688 1.89894 
-11 2.75 2.26162 
-11.125 3.4375 2.46035 
-11.25 4.14063 2.84631 
-11.3125 4.84375 3.06088 
-11.4375 5.53125 3.32056 
-11.5625 6.21875 3.49092 
-11.6875 6.92188 3.75887 
-11.75 7.60938 4.07227 
-11.875 8.3125 4.32624 
-12 9 4.59551 
-12.0625 9.6875 4.91753 
-12.1875 10.375 5.09794 
-12.3125 11.0625 5.42062 
-12.4375 11.75 5.65425 
-12.5625 12.4531 5.78857 
-12.6875 13.1563 5.65939 
-12.8125 13.8594 5.30386 
-13 14.5625 4.88138 
-13.125 15.25 4.59129 
-13.25 15.9531 4.24441 
-13.4375 16.6563 3.87816 
-13.5625 17.3594 3.7737 
-13.6875 18.0469 3.40318 
-13.875 18.75 3.12558 
-14 19.4531 2.88548 
-14.125 20.1563 2.5387 
-14.3125 20.8594 2.18247 
-14.4375 21.5625 1.8665 
-15.4375 22.5313 -10.7818 
-15.625 23.2344 -10.8099 
-15.75 23.9375 -10.9125 
-15.875 24.6406 -10.9027 
-16 25.3594 -10.8998 
-16.125 26.0625 -10.9464 
-16.25 26.7656 -10.9302 
-16.375 27.4688 -11.0008 
-16.5 28.1719 -11.0485 
-16.625 28.875 -10.9911 
-16.75 29.5781 -11.0006 
-16.875 30.2969 -11.047 
-17 31 -11.0482 
-17.125 31.7031 -11.0564 
-17.3125 32.4063 -11.0867 
-17.4375 33.0938 -11.0644 
-17.5625 33.7969 -11.0716 
-17.6875 34.5 -11.1303 
-17.8125 35.2188 -11.0965 
-17.9375 35.9219 -11.0597 
-18.0625 36.625 -11.0645 
-18.1875 37.3438 -11.0966 
-18.3125 38.0469 -11.0936 
-18.4375 38.7344 -11.0303 
-18.5625 39.4375 -11.0563 
-18.6875 40.1406 -11.0595 
-18.8125 40.8438 -11.0397 
-18.9375 41.5625 -11.0641 
-19.0625 42.2656 -11.1332 
-19.1875 42.9531 -11.0676 
-19.3125 43.6719 -11.1233 
-19.4375 44.375 -11.1858 
-19.5625 45.0781 -11.1735 
-19.6875 45.7969 -11.1552 
-19.875 46.5 -11.2562 
-20 47.2031 -11.2475 
-20.125 47.9219 -11.3629 
-20.25 48.6094 -11.301 
-20.375 49.3125 -11.3036 
-20.5 50.0313 -11.2607 
-20.625 50.7344 -11.2472 
-20.75 51.4375 -11.2758 
-20.875 52.125 -11.2669 
-21 52.8438 -11.2821 
-21.125 53.5469 -11.1873 
-21.25 54.25 -11.1966 
-21.375 54.9531 -11.1604 
-21.5 55.6563 -11.1962 
-22 55.8438 -11.2164 
-21.875 55.1406 -11.2452 
-21.75 54.4375 -11.1991 
-21.625 53.7344 -11.2594 
-21.5 53.0313 -11.2651 
-21.375 52.3125 -11.2029 
-21.25 51.6094 -11.1848 
-21.125 50.9063 -11.2137 
-21 50.2031 -11.215 
-20.875 49.5 -11.2626 
-20.75 48.7969 -11.2601 
-20.625 48.0938 -11.2926 
-20.5 47.375 -11.2945 
-20.375 46.6719 -11.2435 
-20.25 45.9688 -11.2296 
-20.125 45.2656 -11.2151 
-20 44.5625 -11.1777 
-19.875 43.8594 -11.0953 
-19.75 43.1406 -11.0574 
-19.625 42.4375 -11.0887 
-19.5 41.7344 -11.0395 
-19.375 41.0313 -11.0525 
-19.25 40.3281 -11.0351 
-19.0625 39.625 -11.0172 
-18.9375 38.9219 -11.0288 
-18.8125 38.2188 -11.025 
-18.6875 37.5156 -11.0506 
-18.5625 36.8125 -11.0658 
-18.5 36.1094 -11.1206 
-18.375 35.4063 -11.1524 
-18.1875 34.6875 -11.1043 
-18.0625 33.9844 -11.1131 
-17.9375 33.2813 -11.1137 
-17.8125 32.5781 -11.1139 
-17.6875 31.875 -11.0462 
-17.5625 31.1719 -11.0604 
-17.4375 30.4688 -11.037 
-17.3125 29.75 -11.0283 
-17.1875 29.0469 -11.0189 
-17.0625 28.3438 -11.0239 
-16.9375 27.6406 -11.0237 
-16.8125 26.9375 -10.9357 
-16.6875 26.2344 -10.9546 
-16.5625 25.5313 -10.9281 
-16.4375 24.8125 -10.8863 
-16.3125 24.1094 -10.8439 
-16.1875 23.4219 -10.8484 
-16.0625 22.7031 -10.8028 
-15.9375 22 -10.8415 
-14.9375 21.0313 1.94405 
-15.8125 21.2969 -10.7452 
-14.8125 20.3438 2.036 
-14.625 19.6406 2.37019 
-14.5 18.9375 2.70713 
-14.375 18.2344 2.99989 
-14.1875 17.5313 3.32289 
-14.0625 16.8438 3.52423 
-13.9375 16.1406 3.89774 
-13.75 15.4375 4.18459 
-13.625 14.7344 4.35003 
-13.5 14.0313 4.77736 
-13.3125 13.3438 5.05305 
-13.1875 12.6406 5.2321 
-13.0625 11.9375 5.56125 
-12.9375 11.25 5.77834 
-12.8125 10.5469 5.55017 
-12.6875 9.85938 5.26746 
-12.5625 9.17188 5.02507 
-12.5 8.48438 4.76566 
-12.375 7.79688 4.48669 
-12.25 7.09375 4.19828 
-12.1875 6.40625 3.99492 
-12.0625 5.71875 3.74461 
-11.9375 5.01563 3.54452 
-11.875 4.32813 3.17058 
-11.75 3.625 2.8442 
-11.625 2.9375 2.63053 
-11.5625 2.25 2.36491 
-11.4375 1.54688 2.08218 
-11.25 0.859375 2.42554 
-11.125 0.15625 2.89879 
-10.9375 -0.53125 4.22984 
-10.75 -1.23438 4.59435 
-10.625 -1.9375 4.75001 
-10.5 -2.625 4.51467 
-10.375 -3.3125 4.88048 
-10.25 -4 5.31665 
-10.0625 -4.6875 5.7607 
-9.9375 -5.375 5.72417 
-9.875 -6.07813 5.2394 
-9.75 -6.78125 4.84456 
-9.6875 -7.46875 4.37038 
-9.9375 -7.48438 0.581955 
-9.5625 -8.17188 3.81705 
-9.5 -8.875 3.55589 
-9.375 -9.57813 2.94849 
-9.25 -10.2656 2.71292 
-9.1875 -10.9688 2.01917 
-9.0625 -11.6719 1.94646 
-9.8125 -11.75 -9.45071 
-9.6875 -12.4531 -9.42838 
-9.5625 -13.1563 -9.44544 
-9.375 -13.8594 -8.57482 
-9.25 -14.5625 -8.85523 
-9.1875 -15.2656 -9.40429 
-9.0625 -15.9688 -9.41951 
-8.9375 -16.6719 -9.41201 
-8.8125 -17.375 -9.4265 
-8.6875 -18.0625 -9.41802 
-8.5625 -18.7813 -9.43907 
-8.4375 -19.4844 -9.41486 
-8.3125 -20.1875 -9.42761 
-8.1875 -20.8906 -9.43995 
-8.0625 -21.5938 -9.4069 
-7.9375 -22.2969 -9.41338 
-7.8125 -23 -9.44685 
-7.6875 -23.6875 -9.29301 
-7.375 -24.3438 -6.86559 
-7.25 -25.0469 -6.85293 
-7.125 -25.75 -6.83984 
-7 -26.4531 -6.84373 
-6.875 -27.1563 -6.83732 
-6.9375 -27.9219 -9.34497 
-6.8125 -28.625 -9.3324 
-6.6875 -29.3281 -9.35696 
-6.5625 -30.0313 -9.35127 
-6.4375 -30.7344 -9.34006 
-6.3125 -31.4375 -9.35352 
-6.1875 -32.1406 -9.3588 
-6.0625 -32.8438 -9.29657 
-5.9375 -33.5469 -9.31595 
-5.8125 -34.25 -9.3151 
-5.6875 -34.9531 -9.34622 
-5.375 -35.5781 -6.8127 
-5.5625 -35.6563 -9.42686 
-5.25 -36.2813 -6.78064 
-5.125 -36.9844 -6.81286 
-5 -37.6875 -6.76006 
-4.875 -38.3906 -6.77161 
-4.75 -39.0938 -6.77264 
-4.625 -39.7969 -6.7909 
-4.8125 -39.875 -9.33997 
-4.6875 -40.5781 -9.38501 
-3.875 -40.9219 1.7159 
-3.75 -41.5938 2.14246 
-3.5625 -42.2813 2.54197 
-3.4375 -42.9531 2.84473 
-3.3125 -43.6719 2.38306 
-3.25 -44.3906 1.77976 
-3.9375 -44.7969 -9.69672 
-3.8125 -45.5 -9.30733 
-3.6875 -46.2031 -9.3189 
-3.5625 -46.9063 -9.29283 
-3.4375 -47.5938 -9.28892 
-3.3125 -48.2969 -9.23951 
-3.1875 -49.0156 -9.28689 
-3.0625 -49.7188 -9.32632 
-2.875 -50.4219 -9.22318 
-2.75 -51.125 -9.21682 
-2.625 -51.8281 -9.24516 
-2.5 -52.5313 -9.2207 
-2.4375 -53.2344 -9.29539 
-2.3125 -53.9375 -9.31727 
-2.1875 -54.6406 -9.36113 
-2.0625 -55.3438 -9.3672 
-2.625 -55.3906 -9.32531 
-2.75 -54.6875 -9.35649 
-2.875 -53.9844 -9.36243 
-3 -53.2813 -9.30793 
-3.125 -52.5781 -9.30055 
-3.25 -51.875 -9.28282 
-3.375 -51.1563 -9.21259 
-3.5 -50.4375 -8.75793 
-3.625 -49.75 -9.27943 
-3.75 -49.0469 -9.23991 
-3.875 -48.3438 -9.28973 
-4 -47.6406 -9.2642 
-4.125 -46.9531 -9.28323 
-4.3125 -46.2344 -9.307 
-4.4375 -45.5313 -9.24305 
-3.875 -44.4531 1.36298 
-4.5625 -44.8281 -9.29826 
-4 -43.7344 1.80475 
-4.0625 -43.0156 2.58046 
-4.25 -42.3438 2.22786 
-4.375 -41.6563 1.73352 
-5.1875 -41.3281 -9.40499 
-5.125 -40.5313 -6.75912 
-5.3125 -40.6094 -9.29817 
-5.25 -39.8281 -6.77888 
-5.4375 -39.125 -6.79314 
-5.5625 -38.4219 -6.82194 
-5.6875 -37.7344 -6.82034 
-5.8125 -37.0156 -6.82594 
-6.0625 -36.3906 -9.32789 
-6.1875 -35.6719 -8.74429 
-6.3125 -34.9844 -9.34427 
-6.4375 -34.2813 -9.34055 
-6.5625 -33.5781 -9.33646 
-6.6875 -32.875 -9.35445 
-6.8125 -32.1719 -9.24474 
-7 -31.4688 -9.36643 
-7.125 -30.7656 -9.36808 
-7.25 -30.0625 -9.35437 
-7.375 -29.3594 -9.37746 
-7.5 -28.6563 -9.34805 
-7.625 -27.9531 -9.40039 
-7.5625 -27.1875 -6.84286 
-7.6875 -26.5 -6.85921 
-7.8125 -25.7969 -6.85784 
-7.9375 -25.0938 -6.83862 
-8.0625 -24.3906 -6.7365 
-8.25 -24.4375 -9.42576 
-8.375 -23.7344 -9.39817 
-8.5 -23.0313 -9.43237 
-8.625 -22.3281 -9.39148 
-8.75 -21.625 -9.40242 
-8.875 -20.9219 -9.41303 
-9 -20.2344 -9.43065 
-9.125 -19.5313 -9.47025 
-9.25 -18.8281 -9.41965 
-9.375 -18.1094 -9.38604 
-9.5 -17.4063 -9.4168 
-9.625 -16.7031 -9.41485 
-9.8125 -16 -9.43974 
-9.875 -15.2969 -9.25494 
-10 -14.5781 -9.01744 
-10.125 -13.875 -8.77184 
-10.25 -13.1875 -8.73046 
-10.4375 -12.4844 -9.42366 
-10.5625 -11.7813 -9.43099 
-9.9375 -11 1.89436 
-10 -10.2969 2.45624 
-10.1875 -9.59375 2.32996 
-10.25 -8.89063 2.68562 
-10.3125 -8.20313 3.74743 
-10.4375 -7.51563 3.57756 
-10.5 -6.8125 4.67019 
-10.625 -6.10938 4.99014 
-10.75 -5.42188 5.12817 
-10.8125 -4.71875 5.75089 
-10.9375 -4.03125 5.56366 
-11.125 -3.32813 5.16496 
-11.25 -2.64063 4.87653 
-11.4375 -1.9375 4.42892 
-11.5625 -1.25 4.03662 
-11.75 -0.546875 3.54244 
-11.875 0.140625 3.25336 
-12.0625 0.84375 2.68784 
-12.1875 1.54688 2.43699 
-12.25 2.23438 2.88905 
-12.375 2.9375 2.97531 
-12.5 3.60938 3.43565 
-12.5625 4.29688 3.80669 
-12.6875 5 3.90158 
-12.8125 5.6875 4.31862 
-12.9375 6.39063 4.59384 
-13 7.07813 4.90703 
-13.125 7.78125 5.10838 
-13.25 8.46875 5.36996 
-13.375 9.15625 5.60201 
-13.4375 9.85938 5.72739 
-13.625 10.5625 5.65634 
-13.75 11.25 5.38881 
-13.875 11.9531 5.07702 
-14.0625 12.6563 4.69077 
-14.1875 13.3438 4.44447 
-14.3125 14.0469 4.26084 
-14.5 14.7344 3.93579 
-14.625 15.4375 3.60098 
-14.75 16.1406 3.34668 
-14.9375 16.8438 3.13493 
-15.0625 17.5469 2.71428 
-15.1875 18.25 2.4213 
-15.375 18.9531 2.08385 
-15.5 19.6563 2.0235 
-16.4375 19.9063 -11.227 
-16.5 20.6094 -10.7458 
-16.625 21.3125 -10.8125 
-16.75 22.0156 -10.7794 
-16.875 22.7188 -10.8228 
-17.0625 23.4219 -10.8959 
-17.1875 24.125 -10.9261 
-17.3125 24.8281 -10.8911 
-17.4375 25.5469 -10.9055 
-17.5625 26.25 -10.9618 
-17.6875 26.9531 -10.9506 
-17.8125 27.6563 -10.9687 
-17.9375 28.3594 -11.0462 
-18.0625 29.0625 -11.0608 
-18.1875 29.7656 -11.0425 
-18.3125 30.4688 -11.0889 
-18.4375 31.1719 -11.0825 
-18.5625 31.875 -11.1204 
-18.6875 32.5781 -11.0759 
-18.8125 33.2813 -11.1403 
-18.9375 34 -11.0647 
-19.125 34.7031 -11.0806 
-19.0625 35.3281 -8.66412 
-19.375 36.1094 -11.0624 
-19.5 36.8125 -10.9854 
-19.625 37.5156 -10.9901 
-19.75 38.2188 -11.0539 
-19.875 38.9219 -11.0575 
-20 39.625 -11.0185 
-20.125 40.3281 -11.0064 
-20.25 41.0313 -10.7725 
-20.375 41.7344 -11.0309 
-20.5 42.4375 -11.0224 
-20.625 43.1563 -11.0982 
-20.75 43.8594 -11.1163 
-20.875 44.5625 -11.144 
-21 45.2813 -11.2207 
-21.125 45.9844 -11.2351 
-21.3125 46.6875 -11.2789 
-21.4375 47.3906 -11.3124 
-21.5625 48.0938 -11.2506 
-21.6875 48.7969 -11.1787 
-21.8125 49.5 -11.263 
-21.9375 50.2031 -11.1504 
-22.0625 50.9063 -11.1614 
-22.1875 51.625 -11.2095 
-22.3125 52.3281 -11.1674 
-22.4375 53.0313 -11.2048 
-22.5625 53.7344 -11.1771 
-22.6875 54.4375 -11.1764 
-22.8125 55.1406 -11.2101 
-22.9375 55.8594 -11.2082 
-23.375 55.9375 -11.1894 
-23.25 55.2188 -11.1762 
-23.125 54.5156 -11.195 
-23 53.8125 -11.1736 
-22.875 53.1094 -11.2015 
-22.75 52.4063 -11.1792 
-22.625 51.7031 -11.1987 
-22.5 50.9844 -11.173 
-22.375 50.2813 -11.1918 
-22.25 49.5781 -11.1724 
-22.125 48.875 -11.2125 
-22 48.1875 -11.2594 
-21.875 47.4688 -11.2688 
-21.75 46.7656 -11.2131 
-21.625 46.0625 -11.1822 
-21.5 45.3594 -11.1927 
-21.375 44.6563 -11.148 
-21.25 43.9531 -11.1178 
-21.125 43.25 -11.1168 
-21 42.5469 -11.0934 
-20.875 41.8281 -11.0472 
-20.6875 41.0938 -10.3138 
-20.625 40.4219 -10.996 
-20.5 39.7031 -10.9958 
-20.375 39.0156 -11.0374 
-20.25 38.3125 -11.011 
-20.125 37.6094 -11.007 
-20 36.9063 -10.9799 
-19.875 36.2031 -11.0495 
-19.5625 35.4219 -8.65893 
-19.625 34.7969 -11.0434 
-19.5 34.0938 -11.0646 
-19.375 33.375 -11.1078 
-19.25 32.6719 -11.1356 
-19.125 31.9688 -11.1705 
-19 31.2656 -11.1824 
-18.875 30.5625 -11.1367 
-18.75 29.8594 -11.1056 
-18.625 29.1563 -11.0737 
-18.4375 28.4531 -11.0491 
-18.3125 27.7344 -11.0092 
-18.1875 27.0469 -10.9909 
-18.0625 26.3438 -10.9949 
-17.9375 25.625 -10.9313 
-17.8125 24.9219 -10.942 
-17.6875 24.2188 -10.8773 
-17.5625 23.5156 -10.8522 
-17.4375 22.8125 -10.859 
-17.3125 22.1094 -10.7781 
-17.1875 21.4063 -10.7789 
-17.0625 20.7031 -10.7794 
-16.9375 20 -10.8045 
-15.9375 19.0469 2.00784 
-16.8125 19.2813 -10.7195 
-15.8125 18.3438 1.96398 
-15.625 17.6563 2.38898 
-15.5 16.9531 2.67739 
-15.375 16.25 2.84415 
-15.25 15.5625 3.14595 
-15.0625 14.8594 3.458 
-14.9375 14.1563 3.78796 
-14.8125 13.4531 4.07093 
-14.625 12.75 4.30217 
-14.5 12.0469 4.67826 
-14.375 11.3594 4.94535 
-14.1875 10.6563 5.29 
-14.0625 9.95313 5.5877 
-13.9375 9.26563 5.78371 
-13.8125 8.57813 5.65385 
-13.6875 7.89063 5.39217 
-13.625 7.1875 5.09362 
-13.5 6.5 4.79791 
-13.375 5.8125 4.50522 
-13.3125 5.10938 4.29501 
-13.1875 4.42188 3.98066 
-13.0625 3.73438 3.73404 
-12.9375 3.04688 3.50771 
-12.875 2.34375 3.22695 
-12.75 1.65625 3.004 
-12.625 0.953125 2.78891 
-12.5 0.25 3.28696 
-12.3125 -0.4375 3.61591 
-12.1875 -1.14063 4.10233 
-12.0625 -1.82813 4.48967 
-11.875 -2.53125 4.8847 
-11.75 -3.21875 5.31776 
-11.5625 -3.92188 5.75361 
-11.4375 -4.60938 5.7041 
-11.375 -5.29688 5.37086 
-11.25 -5.98438 4.69147 
-11.1875 -6.67188 4.40884 
-11.0625 -7.375 3.93964 
-11 -8.0625 3.58315 
-10.875 -8.76563 3.06981 
-10.8125 -9.46875 2.72916 
-10.6875 -10.1719 2.32145 
-10.625 -10.8594 1.86412 
-11.3125 -10.9375 -9.29379 
-11.1875 -11.6406 -9.35412 
-11.0625 -12.3438 -8.8883 
-10.9375 -13.0469 -9.41882 
-10.8125 -13.75 -9.33839 
-10.6875 -14.4531 -9.2551 
-10.5625 -15.1719 -9.22364 
-10.4375 -15.875 -9.29394 
-10.3125 -16.5625 -9.00739 
-10.1875 -17.2656 -9.3783 
-10.0625 -17.9688 -9.41492 
-9.9375 -18.6719 -9.39872 
-9.8125 -19.375 -9.42705 
-9.6875 -20.0781 -9.42496 
-9.5625 -20.7813 -9.41732 
-9.4375 -21.4844 -9.38707 
-9.3125 -22.1875 -9.42852 
-9.1875 -22.8906 -9.38988 
-9.0625 -23.5938 -9.37068 
-8.9375 -24.2969 -9.40588 
-8.8125 -25 -9.4082 
-8.6875 -25.7031 -9.42017 
-8.4375 -26.3594 -6.83216 
-8.3125 -27.0625 -6.83833 
-8.4375 -27.1094 -9.44775 
-8.3125 -27.8125 -9.42842 
-8.1875 -28.5 -9.35387 
-8.0625 -29.2031 -9.36623 
-7.9375 -29.9063 -9.35068 
-7.8125 -30.6094 -9.33454 
-7.6875 -31.3125 -9.37535 
-7.5625 -32.0156 -9.32615 
-7.4375 -32.7188 -9.34877 
-7.3125 -33.4219 -9.32858 
-7.1875 -34.1094 -9.21571 
-7.0625 -34.8281 -9.30174 
-6.9375 -35.5313 -9.35247 
-6.8125 -36.2344 -9.35287 
-6.6875 -36.9375 -9.32545 
-6.5625 -37.6406 -9.34254 
-6.3125 -38.2656 -6.80253 
-6.125 -38.9688 -6.77132 
-6 -39.6719 -6.75235 
-5.9375 -40.375 -7.02438 
-5.8125 -41.0781 -7.05935 
-5.6875 -41.7813 -7.0688 
-5.6875 -42.5625 -9.41501 
-4.875 -42.8906 1.75379 
-5.5625 -43.2813 -9.73296 
-4.75 -43.5781 1.733 
-5.3125 -44.6719 -9.335 
-5.1875 -45.375 -9.29506 
-5.0625 -46.0625 -9.26953 
-4.9375 -46.7656 -9.26605 
-4.8125 -47.4688 -9.2723 
-4.6875 -48.1875 -9.25284 
-4.5625 -48.8906 -9.25288 
-4.4375 -49.5938 -9.24523 
-4.3125 -50.2813 -9.13496 
-4.1875 -51 -9.26077 
-4.0625 -51.7031 -9.2841 
-3.9375 -52.4063 -9.36182 
-3.8125 -53.125 -9.35185 
-3.6875 -53.8125 -9.34413 
-3.5625 -54.5156 -9.36353 
-3.4375 -55.2188 -9.34991 
-3.3125 -55.9219 -9.4007 
-4 -55.75 -9.42964 
-4.125 -55.0469 -9.39362 
-4.25 -54.3594 -9.39452 
-4.375 -53.6406 -9.32798 
-4.5 -52.9375 -9.38793 
-4.625 -52.2344 -9.33792 
-4.75 -51.5313 -9.28493 
-4.875 -50.8281 -9.2914 
-5 -50.125 -9.32473 
-5.125 -49.4063 -8.91921 
-5.25 -48.7031 -9.23829 
-5.375 -48.0156 -9.26536 
-5.5 -47.3125 -9.26457 
-5.625 -46.6094 -9.30332 
-5.8125 -45.8906 -9.28181 
-5.9375 -45.2031 -9.3469 
-6.0625 -44.5 -9.34184 
-5.5 -43.4063 1.71157 
-6.1875 -43.7969 -9.32655 
-6.3125 -43.0938 -9.37296 
-6.3125 -42.3125 -7.06942 
-6.4375 -41.5938 -7.04788 
-6.5625 -40.8906 -7.04085 
-6.6875 -40.1875 -7.03081 
-6.8125 -39.4688 -6.77368 
-6.9375 -38.7813 -6.83498 
-7.0625 -38.8438 -9.30432 
-7.1875 -38.1406 -8.84411 
-7.3125 -37.4531 -9.35577 
-7.4375 -36.75 -9.33859 
-7.5 -36.0313 -8.46372 
-7.625 -35.3281 -8.38333 
-7.75 -34.625 -8.35966 
-7.875 -33.9219 -8.48791 
-8.0625 -33.2344 -9.35816 
-8.1875 -32.5469 -9.3981 
-8.3125 -31.8281 -9.3854 
-8.4375 -31.125 -9.34241 
-8.625 -30.4219 -9.38859 
-8.75 -29.7188 -9.36703 
-8.875 -29 -9.35515 
-9 -28.3125 -9.27526 
-9.125 -27.6406 -9.35432 
-9.25 -26.9219 -9.40349 
-9.375 -26.1875 -9.40262 
-9.5 -25.4375 -9.43124 
-9.625 -24.6719 -9.39959 
-9.8125 -23.9063 -9.42719 
-9.875 -23.25 -9.33409 
-10 -22.6094 -9.44495 
-10.125 -21.9375 -9.42841 
-10.25 -21.2656 -9.4266 
-10.375 -20.5781 -9.40674 
-10.5 -19.8906 -9.36422 
-10.625 -19.1719 -9.37369 
-10.75 -18.4844 -9.39001 
-10.875 -17.7813 -9.38363 
-11 -17.0625 -8.59906 
-11.125 -16.375 -8.87588 
-11.25 -15.6719 -9.20707 
-11.375 -14.9688 -9.20408 
-11.5625 -14.2656 -9.36742 
-11.6875 -13.5625 -9.44311 
-11.8125 -12.8594 -9.43128 
-11.9375 -12.1719 -9.43121 
-12 -11.4688 -9.14934 
-12.1875 -10.7656 -9.3131 
-11.5625 -10 1.85851 
-11.6875 -9.3125 2.13882 
-11.75 -8.60938 2.40507 
-11.875 -7.92188 3.06042 
-11.9375 -7.21875 3.31243 
-12.0625 -6.51563 4.1511 
-12.125 -5.82813 4.69566 
-12.25 -5.125 5.0835 
-12.375 -4.4375 5.11002 
-12.4375 -3.75 6.01757 
-12.5625 -3.0625 5.45709 
-12.75 -2.35938 5.12884 
-12.875 -1.67188 4.73889 
-13.0625 -0.984375 4.25706 
-13.1875 -0.28125 3.66856 
-13.375 0.421875 3.47427 
-13.5 1.125 3.28548 
-13.5625 1.8125 3.58796 
-13.75 2.5 3.30473 
-13.8125 3.20313 3.98482 
-13.9375 3.89063 4.43814 
-14 4.59375 4.6899 
-14.125 5.28125 4.95699 
-14.25 5.96875 5.25439 
-14.3125 6.65625 5.51497 
-14.4375 7.35938 5.77602 
-14.5625 8.04688 5.88039 
-14.6875 8.75 5.68637 
-14.875 9.45313 5.15616 
-15 10.1563 4.93803 
-15.1875 10.8438 4.67794 
-15.3125 11.5469 4.38341 
-15.4375 12.2656 4.01213 
-15.625 12.9531 3.73829 
-15.75 13.6563 3.50236 
-15.875 14.3594 3.22958 
-16.0625 15.0625 2.88004 
-16.1875 15.7656 2.52586 
-16.3125 16.4844 2.24944 
-16.5 17.1875 1.96347 
-17.5 18.1094 -10.6985 
-17.625 18.8125 -10.6969 
-17.75 19.5156 -10.7723 
-17.875 20.2344 -10.7797 
-18 20.9375 -10.8417 
-18.125 21.6406 -10.816 
-18.25 22.3438 -10.8073 
-18.375 23.0313 -10.0759 
-18.5625 23.7656 -10.9107 
-18.6875 24.4688 -10.8781 
-18.8125 25.1875 -10.9498 
-18.9375 25.8906 -10.9087 
-19.0625 26.6094 -10.9946 
-19.1875 27.3125 -11.0277 
-19.3125 28.0156 -11.0529 
-19.4375 28.7188 -11.0779 
-19.5625 29.4219 -11.095 
-19.6875 30.125 -11.1563 
-19.8125 30.8281 -11.0874 
-19.9375 31.5313 -11.0532 
-20.0625 32.25 -11.0333 
-20.1875 32.9531 -11.0455 
-20.3125 33.6563 -11.0073 
-20.5 34.3594 -11.0014 
-20.625 35.0625 -11.0597 
-20.75 35.7813 -10.9977 
-20.875 36.4844 -10.9955 
-21 37.1875 -10.9702 
-21.125 37.8906 -10.9345 
-20.875 38.4219 -6.2235 
-21.25 38.5938 -10.9386 
-21 39.125 -6.29156 
-21.375 39.2969 -10.9543 
-21.5 40 -10.9649 
-21.5625 40.6875 -10.29 
-21.75 41.4063 -10.9869 
-21.875 42.1094 -11.0261 
-22 42.8281 -11.1344 
-22.125 43.5156 -11.0683 
-22.25 44.2188 -11.1585 
-22.375 44.9219 -11.0814 
-22.5 45.625 -11.1108 
-22.625 46.3281 -11.1623 
-22.8125 47.0469 -11.2331 
-22.9375 47.75 -11.2413 
-23.0625 48.4531 -11.1769 
-23.1875 49.1563 -11.1367 
-23.3125 49.8594 -11.1758 
-23.4375 50.5625 -11.1499 
-23.5625 51.2656 -11.1113 
-23.6875 51.9688 -11.1591 
-23.8125 52.6875 -11.132 
-23.9375 53.3906 -11.1193 
-24.0625 54.0938 -11.1208 
-24.1875 54.7969 -11.1373 
-24.3125 55.5 -11.1758 
-24.75 55.3594 -11.1493 
-24.625 54.6563 -11.1481 
-24.5 53.9531 -11.1617 
-24.375 53.25 -11.1525 
-24.25 52.5469 -11.0979 
-24.125 51.8438 -11.1799 
-24 51.125 -11.0946 
-23.875 50.4375 -11.128 
-23.75 49.7188 -11.1465 
-23.625 49.0156 -11.1943 
