ply
format ascii 1.0
comment saved by liangliang.nan@gmail.com
element vertex 838
property float x
property float y
property float z
property float nx
property float ny
property float nz
property int segment_index
end_header
34.1078 -79.7819 -31.8075 0.00888128 -0.999252 0.0376281 14
32.0533 -12.1294 -40.5228 0.66429 0.735833 -0.131414 12
31.8628 -12.571 -44.0186 0.666322 0.7385 -0.103119 12
31.8139 -12.3652 -43.2688 0.670856 0.733532 -0.109012 12
34.1874 -79.765 -30.7631 -0.0130383 -0.999831 -0.0129356 14
31.796 -12.0533 -41.3796 0.662663 0.73721 -0.131905 12
31.5663 -12.0506 -42.7097 0.657983 0.739836 -0.140363 12
31.3847 -11.7101 -41.4938 0.680177 0.719958 -0.137913 12
34.3394 -79.979 -32.479 -0.173482 -0.21954 0.960055 -1
31.3562 -11.9981 -43.2683 0.662357 0.742567 -0.0993837 12
31.3164 -11.7016 -42.1753 0.689026 0.718087 -0.0979529 12
31.1568 -11.2272 -39.8762 0.663566 0.739383 -0.113985 12
31.0917 -11.8811 -44.1266 0.646907 0.745224 -0.16172 12
30.9797 -11.4199 -41.952 0.66646 0.734082 -0.130213 12
30.9504 -11.6765 -43.5539 0.639276 0.757413 -0.132858 12
34.4916 -78.1493 -34.1725 0.216283 -0.756257 -0.617492 15
34.4992 -79.7528 -29.7799 -0.0120656 -0.999783 0.0169765 14
30.9284 -11.5176 -42.882 0.655212 0.741772 -0.143079 12
34.5497 -78.8917 -33.2382 0.194987 -0.763882 -0.615194 15
30.8802 -11.1778 -41.1171 0.683555 0.721933 -0.107547 12
30.8383 -11.0568 -40.5746 0.678834 0.722396 -0.131633 12
30.6784 -11.5168 -44.1011 0.650102 0.754226 -0.0922515 12
30.6622 -11.0255 -41.7722 0.687801 0.712448 -0.139096 12
30.5742 -11.0947 -42.244 0.672024 0.720414 -0.171429 12
30.5212 -10.8324 -41.1831 0.667429 0.738294 -0.0972593 12
30.3815 -10.4861 -40.1214 0.74493 0.656853 -0.116717 12
30.3745 -11.2785 -44.4923 0.643373 0.756399 -0.118032 12
30.2821 -10.9778 -43.1087 0.667241 0.737703 -0.102879 12
30.1793 -10.7156 -42.2993 0.711288 0.6906 -0.130923 12
30.1468 -11.0208 -43.9607 0.658869 0.743224 -0.11623 12
30.1266 -9.85623 -39.6834 0.74844 0.653345 -0.113918 12
29.9535 -9.99634 -40.2819 0.764632 0.608215 -0.213103 12
29.8766 -10.7889 -44.3338 0.718049 0.683964 -0.128839 12
34.8711 -79.7344 -30.9577 -0.0628282 -0.997853 0.0184911 14
34.884 -79.6205 -32.2188 0.279922 -0.807851 -0.518672 15
29.81 -10.4412 -43.0547 0.759949 0.62461 -0.179833 12
29.7768 -9.60411 -39.952 0.46656 0.861734 -0.199339 12
29.7153 -10.5287 -43.7114 0.757587 0.637133 -0.141858 12
29.549 -9.92582 -42.0944 0.719066 0.681375 -0.136644 12
29.5448 -9.94413 -42.6138 0.700268 0.695741 -0.159902 12
29.4796 -10.3243 -44.2137 0.769714 0.620011 -0.152077 12
29.4193 -10.1791 -43.5736 0.762919 0.630299 -0.143798 12
29.3385 -9.65491 -40.8862 0.301614 0.953409 -0.00632158 12
29.2967 -9.61581 -39.8295 0.112196 0.993402 -0.0237623 12
35.1744 -78.7362 -33.2273 0.172678 -0.773943 -0.609257 15
29.272 -9.68346 -41.5403 0.291848 0.950482 -0.106811 12
35.2753 -77.8955 -34.1664 0.232558 -0.765087 -0.600466 15
29.244 -9.62726 -42.8106 0.460573 0.86329 -0.206402 12
29.1978 -9.90651 -44.0428 0.765197 0.635054 -0.105738 12
35.3142 -79.161 -32.7002 0.191416 -0.752004 -0.630753 15
35.3178 -80.0436 -31.9813 -0.0775572 -0.553841 0.829003 -1
28.9666 -9.62681 -42.044 0.167274 0.985911 0 12
28.751 -9.61947 -42.9503 0.126608 0.991655 -0.0243195 12
28.7059 -9.62818 -41.0245 -0.116861 0.991894 0.0499053 17
28.6529 -9.68051 -40.1816 -0.11828 0.992792 0.0193124 17
35.4398 -78.2632 -33.6581 0.292354 -0.719201 -0.630301 15
28.6244 -9.66235 -44.2594 0.19008 0.98045 -0.0508745 12
35.5608 -79.6509 -31.8343 0.0155251 -0.965668 -0.259316 14
28.5742 -9.6247 -41.4914 -0.105149 0.994446 0.00461315 17
28.4061 -9.67668 -42.0543 -0.162117 0.986368 0.0282329 17
28.3009 -9.71935 -40.6858 -0.154614 0.987967 -0.00392526 17
28.0532 -9.73131 -42.5748 -0.103026 0.994564 0.0151163 17
35.6903 -79.7441 -30.4179 0.00541127 -0.999461 0.0323867 14
35.7168 -77.584 -34.382 0.21776 -0.761463 -0.610536 15
27.9552 -9.74817 -39.762 -0.0131302 0.999898 0.00556459 17
27.729 -9.75698 -42.0993 -0.0806402 0.99599 0.0387364 17
35.8462 -77.9237 -33.9607 0.219368 -0.78848 -0.574611 15
27.5825 -9.7477 -43.8968 -0.0783561 0.996144 0.0394752 17
27.2822 -9.75121 -42.4991 -0.0136929 0.999322 -0.0341682 17
35.9275 -79.3743 -32.1359 0.252825 -0.704207 -0.663454 15
27.249 -9.78574 -40.8672 -0.01157 0.999758 0.0187234 17
27.2321 -9.80765 -44.4086 -0.0789419 0.995694 -0.0485961 17
27.1221 -9.78161 -43.4349 -0.0365554 0.999295 0.00852392 17
27.0717 -9.75117 -41.5653 0.0147196 0.999838 -0.010363 17
27.0665 -9.77871 -42.9388 -0.000360986 0.999997 -0.00245624 17
27.0403 -9.76174 -39.6757 -0.0091337 0.999485 -0.0307488 17
26.8528 -9.74865 -42.1752 -0.00628839 0.999718 0.0228844 17
26.7727 -9.81535 -43.9667 -0.0445927 0.998275 -0.0381953 17
26.5973 -9.76616 -41.4965 -0.0102988 0.999517 -0.0293186 17
26.3132 -9.7502 -39.6245 0.0219716 0.999645 -0.0150671 17
36.173 -79.6934 -31.4657 0.018504 -0.992718 -0.119037 14
26.2577 -9.77439 -42.0034 -0.00277189 0.999996 0.000777006 17
26.1584 -9.74318 -40.5196 0.0480194 0.998841 -0.00322141 17
26.139 -9.80797 -43.8121 -0.00215613 0.999912 -0.0130623 17
26.0827 -9.79025 -43.3276 0.00375524 0.999857 -0.016512 17
26.0337 -9.76196 -41.1941 -0.0135895 0.999761 -0.0171455 17
25.6802 -9.75765 -39.8326 0.0256935 0.999621 -0.00985088 17
25.6465 -9.73911 -40.6376 -0.0194353 0.999506 -0.0246967 17
25.6392 -9.77286 -42.36 -0.0129435 0.999895 -0.00648662 17
25.6208 -9.76752 -41.5296 -0.00588893 0.999972 -0.00472583 17
36.3568 -79.736 -30.5133 0.0310421 -0.999416 0.0143135 14
36.4084 -79.7077 -29.8294 0.0310124 -0.997892 0.0570012 14
36.4123 -78.2599 -33.1618 0.194725 -0.748993 -0.633318 15
25.5173 -9.80485 -43.6773 -0.0313576 0.99948 -0.00753553 17
25.4559 -9.82173 -44.3361 -0.00111548 0.99921 -0.0397316 17
36.4887 -77.9512 -33.7478 0.190795 -0.763859 -0.616536 15
25.2154 -9.75568 -41.1882 0.0239913 0.999617 -0.0138218 17
24.8929 -9.81237 -44.0361 -0.0397175 0.998493 -0.0378774 17
24.6339 -9.78646 -41.5071 0.00375215 0.999959 -0.00821604 17
24.6158 -9.77855 -42.1612 0.000238296 0.999315 -0.0370079 17
24.5165 -9.74509 -40.5286 -0.0106765 0.99992 -0.00686833 17
24.4567 -9.7447 -40.0226 0.0110877 0.999675 -0.0229628 17
36.6388 -79.4259 -31.9235 0.260684 -0.724687 -0.637866 15
24.406 -9.80518 -43.0554 -0.0140231 0.99982 -0.0127561 17
24.3468 -9.79628 -42.5624 0.0055956 0.999231 -0.0387966 17
24.2668 -9.82076 -44.3959 -0.0245912 0.99887 -0.040665 17
24.1292 -9.73524 -41.2818 -0.0280544 0.999459 -0.0171598 17
36.8037 -78.9565 -32.3752 0.243349 -0.760999 -0.601383 15
23.9017 -9.77464 -42.7936 0.00756962 0.999672 -0.0244693 17
23.8836 -9.8849 -43.6515 0.0105426 0.999107 -0.0409217 17
36.8678 -80.5575 -32.0299 -0.235955 -0.358523 0.903209 -1
36.8723 -78.4077 -33.0345 0.204666 -0.782736 -0.587739 15
36.8826 -77.3689 -34.2676 0.2368 -0.742528 -0.626561 15
36.9072 -79.7392 -29.6383 0.0132059 -0.999909 -0.002623 14
23.7027 -9.80852 -44.0954 0.0397505 0.999124 0.0130609 17
23.6488 -9.74854 -39.5712 -0.00558314 0.999657 -0.0255832 17
23.607 -9.72929 -40.9853 0.0201736 0.999395 -0.0283215 17
23.4747 -9.77908 -41.5554 0.0169467 0.999854 0.0021956 17
23.2479 -9.7323 -43.1551 -0.0146009 0.998273 -0.0569033 17
23.0479 -9.74079 -41.2908 0.00110748 0.999998 0.00149748 17
37.1589 -77.7246 -33.7651 0.251196 -0.765421 -0.592479 15
23.0301 -9.73572 -39.9272 -0.00956554 0.999952 -0.00229204 17
22.921 -9.83232 -42.7538 0.0180772 0.999642 -0.0197476 17
37.2766 -79.7641 -30.3044 0.0394856 -0.995504 0.0860952 14
22.921 -9.73813 -43.6209 0.0290971 0.999574 -0.00239135 17
22.8515 -9.77476 -41.9134 -0.00791838 0.999623 -0.0262779 17
22.5439 -9.74956 -41.3292 0.0152783 0.99983 0.0102967 17
22.5071 -9.78407 -42.4239 -0.00561569 0.99915 -0.0408434 17
22.388 -9.80928 -43.7487 0.0817897 0.996461 0.0193892 17
22.1604 -9.76914 -41.046 -0.0178862 0.999807 -0.00811589 17
22.1437 -9.84398 -42.1295 0.00513749 0.999931 0.0105757 17
21.8554 -9.79183 -43.9873 0.156863 0.984637 0.0767089 17
21.7133 -9.73298 -39.661 -0.0244591 0.99955 -0.0173867 17
21.6541 -9.74397 -40.2333 0.0422421 0.99902 0.0132497 17
21.4844 -9.76493 -42.2241 -0.00524138 0.999258 -0.0381613 17
37.5282 -79.4527 -31.4403 0.171809 -0.764113 -0.621782 15
21.4171 -9.79248 -42.8879 0.0317467 0.997407 0.06459 17
21.3908 -9.7412 -43.5505 0.0677022 0.992245 0.104237 17
21.3577 -9.84993 -41.5204 0.00679977 0.999637 0.0260878 17
37.6129 -80.6353 -31.8058 -0.255227 -0.504828 0.824626 -1
21.0234 -9.76893 -42.3281 -0.0113339 0.999589 -0.026349 17
20.8364 -9.77873 -44.1023 -0.259704 0.843028 -0.471019 8
37.7277 -77.2908 -34.1065 0.233368 -0.76408 -0.601433 15
37.7353 -79.7601 -30.5201 0.0512386 -0.99868 -0.00366864 14
20.834 -9.70336 -43.2474 0.17143 0.979016 0.110177 17
20.7188 -9.72946 -41.2985 -0.0167543 0.999829 -0.00787883 17
37.7879 -78.023 -33.1662 0.238287 -0.693216 -0.680199 15
20.5533 -9.82973 -43.6216 -0.370095 0.878357 -0.30252 8
37.8298 -78.7858 -32.1639 0.210813 -0.767946 -0.604828 15
37.8603 -78.3531 -32.7823 0.221342 -0.764754 -0.60511 15
37.8741 -79.1246 -31.8178 0.217839 -0.755363 -0.61804 15
37.9371 -79.7171 -29.9404 -0.0265635 -0.999647 -0.00012866 14
37.9943 -77.4422 -33.7171 0.201527 -0.775584 -0.598212 15
20.4531 -9.73155 -40.2851 -0.00780247 0.999595 -0.0273734 17
20.4122 -9.73204 -42.6882 0.10463 0.984811 0.138565 17
20.1784 -9.70127 -42.2236 0.110709 0.989633 0.0914843 17
20.0285 -10.2984 -44.3837 -0.378416 0.86008 -0.342145 8
19.9777 -9.75904 -40.3877 0.000983478 0.999965 -0.00836411 17
19.7782 -9.61805 -43.7773 -0.60246 0.640048 -0.476844 8
19.7191 -9.9303 -43.397 -0.526369 0.723793 -0.446161 8
38.2338 -80.1618 -31.141 -0.30837 -0.509562 0.803277 -1
19.6802 -10.1481 -44.0335 -0.458592 0.556161 -0.693093 8
19.6264 -10.6526 -44.1579 -0.499575 0.677626 -0.539674 8
19.4587 -9.56822 -42.4869 0.037738 0.998305 -0.044313 17
38.3305 -78.7242 -32.0868 0.269253 -0.74265 -0.613167 15
19.4273 -9.72693 -41.8226 0.129602 0.981128 0.143497 17
19.3349 -9.61472 -43.3444 -0.537188 0.691299 -0.483255 8
19.2672 -9.74052 -40.0164 0.0366412 0.999312 -0.00570012 17
19.124 -9.75134 -41.1036 0.0884331 0.995754 0.0255523 17
38.4251 -79.6803 -29.8391 0.0319172 -0.998691 0.0399637 14
38.4396 -78.0582 -32.8824 0.233072 -0.745196 -0.624788 15
19.123 -9.69943 -40.5387 -0.00264509 0.999977 -0.00623887 17
19.1089 -10.4017 -43.3996 -0.390134 0.819277 -0.420214 8
19.0205 -11.0646 -44.205 -0.466149 0.792648 -0.392956 8
18.9737 -10.6132 -44.0008 -0.401999 0.645209 -0.649694 8
18.8145 -9.94486 -42.9816 -0.526594 0.634052 -0.566283 8
18.7528 -9.57973 -41.773 0.0185803 0.999716 0.0149082 17
38.6772 -76.9887 -34.0459 0.202939 -0.762298 -0.614588 15
18.4512 -10.6036 -43.0956 -0.512061 0.668733 -0.539064 8
18.3894 -9.62485 -42.5353 -0.359756 0.91532 -0.18101 8
18.2488 -9.76949 -40.4999 0.0767998 0.993711 0.081492 17
38.809 -78.9791 -31.6253 0.226008 -0.74851 -0.623421 15
38.8226 -79.3085 -31.1531 0.344762 -0.625145 -0.700238 15
18.1872 -9.75786 -39.8747 0.0361739 0.99908 0.0230253 17
18.1526 -11.4259 -44.2828 -0.319004 0.818414 -0.477949 8
38.88 -80.1805 -31.0206 -0.268448 -0.466471 0.842817 -1
18.0127 -9.97884 -42.4647 -0.651015 0.521728 -0.551343 8
17.7684 -9.56205 -40.9034 0.0618901 0.997909 0.0186215 17
39.003 -76.6414 -34.4202 0.228153 -0.730834 -0.643294 15
39.0259 -79.6825 -30.1594 -0.0468394 -0.99638 -0.0709455 14
17.7498 -11.1738 -43.6247 -0.428272 0.681475 -0.593444 8
39.0494 -77.4989 -33.3147 0.20545 -0.757838 -0.619251 15
17.7375 -9.71699 -40.2354 0.132456 0.982316 0.132325 17
39.0886 -78.0871 -32.658 0.214192 -0.728798 -0.650366 15
17.58 -9.59563 -41.5958 -0.305942 0.850377 -0.428088 8
17.4881 -11.5511 -43.9326 -0.439786 0.641275 -0.628772 8
17.4659 -10.5728 -42.6548 -0.453653 0.7973 -0.398136 8
17.4601 -10.3038 -41.9259 -0.403479 0.780091 -0.478187 8
17.2803 -12.0882 -44.2715 -0.513746 0.625606 -0.587096 8
17.2597 -9.64264 -41.0073 -0.255601 0.94687 -0.195206 8
39.2849 -78.3725 -32.1752 0.212395 -0.764019 -0.609231 15
39.3134 -79.7377 -29.4877 0.0182241 -0.999821 -0.005089 14
39.3187 -76.9577 -33.8986 0.220029 -0.762503 -0.608422 15
17.2543 -11.2246 -43.0418 -0.420097 0.74363 -0.520129 8
17.1554 -9.96372 -41.5734 -0.533249 0.510629 -0.674465 8
16.9059 -11.6604 -43.5876 -0.482838 0.663618 -0.571383 8
16.8978 -10.9324 -42.3182 -0.544244 0.696333 -0.467887 8
16.7968 -10.5085 -41.6165 -0.489089 0.596408 -0.636466 8
16.7957 -9.72424 -39.7159 0.141147 0.96748 0.209903 17
16.7359 -9.64211 -41.1219 -0.373258 0.800449 -0.469 8
39.4942 -79.6878 -30.055 0.0276932 -0.998733 -0.0420106 14
39.5476 -79.9087 -30.6447 -0.246728 -0.353777 0.902201 -1
16.7233 -12.2116 -43.9756 -0.373948 0.686588 -0.623506 8
16.6637 -12.5284 -44.3455 -0.449825 0.706882 -0.54587 8
16.6461 -10.0773 -41.3496 -0.589621 0.633319 -0.501253 8
16.4666 -11.6734 -42.9328 -0.516047 0.627817 -0.582702 8
16.2839 -9.64107 -40.6988 -0.425018 0.839974 -0.337347 8
39.71 -78.6982 -31.5937 0.209752 -0.744297 -0.634056 15
16.2782 -10.6056 -41.2871 -0.328533 0.676443 -0.65916 8
39.7311 -77.4599 -33.1088 0.247821 -0.747524 -0.616273 15
39.8174 -78.2583 -32.0813 0.259086 -0.752917 -0.604971 15
16.2557 -11.0725 -41.944 -0.37938 0.846537 -0.373425 8
16.212 -9.50915 -39.7218 -0.0987394 0.989178 -0.108526 8
16.0969 -12.6757 -44.2824 -0.333511 0.849939 -0.40789 8
16.0791 -12.0662 -43.1989 -0.540742 0.703192 -0.461648 8
40.033 -76.7565 -33.8321 0.216123 -0.753236 -0.62123 15
16.0347 -10.1966 -41.0115 -0.638921 0.589713 -0.493983 8
40.0542 -79.1191 -30.9495 0.227022 -0.768432 -0.598308 15
40.1356 -79.6881 -29.6858 0.0265776 -0.997911 -0.0588778 14
15.9292 -12.4658 -43.7217 -0.456337 0.74158 -0.491748 8
15.8594 -11.5198 -42.2995 -0.378042 0.833812 -0.402296 8
40.2031 -79.487 -30.3912 0.170229 -0.826856 -0.536032 14
15.6635 -11.2433 -41.9489 -0.466651 0.692891 -0.549671 8
15.6612 -10.3751 -40.5675 -0.39224 0.71223 -0.58213 8
40.2528 -78.5681 -31.5475 0.204261 -0.757251 -0.620362 15
15.5983 -10.6051 -40.996 -0.476958 0.728148 -0.492251 8
40.2763 -77.9585 -32.2691 0.212086 -0.75531 -0.620101 15
15.5308 -12.1707 -42.9023 -0.494447 0.656525 -0.569647 8
15.5142 -12.8962 -44.1598 -0.461568 0.698916 -0.546326 8
15.3204 -10.1821 -40.0105 -0.454872 0.608821 -0.649945 8
15.3017 -12.6277 -43.3139 -0.478353 0.747936 -0.460185 8
15.1578 -9.63719 -39.6378 -0.379364 0.831387 -0.406053 8
14.8903 -10.3944 -39.9155 -0.457944 0.68419 -0.567601 8
14.8901 -11.1517 -41.1944 -0.433795 0.733309 -0.523527 8
40.5584 -77.0074 -33.3163 0.230331 -0.752711 -0.616744 15
40.5614 -76.3637 -34.1285 0.212348 -0.763024 -0.610494 15
14.8694 -11.9507 -42.2309 -0.44576 0.79028 -0.420422 8
40.5944 -76.7228 -33.6992 0.224225 -0.744665 -0.628647 15
14.8641 -12.3484 -42.6153 -0.388081 0.820409 -0.419908 8
14.8576 -11.5337 -41.6548 -0.400288 0.734304 -0.54824 8
14.73 -10.7585 -40.4899 -0.451362 0.738745 -0.500528 8
40.6691 -80.6121 -30.8697 -0.340324 -0.388723 0.856197 -1
14.6827 -10.0204 -39.6724 -0.475146 0.706871 -0.523994 8
40.7197 -77.6911 -32.4549 0.236764 -0.737537 -0.632441 15
14.4205 -11.4782 -40.9952 -0.460941 0.747273 -0.478662 8
14.3017 -10.3754 -39.6142 -0.375211 0.699758 -0.607911 8
14.1956 -11.1558 -40.5849 -0.424985 0.756544 -0.497021 8
14.1877 -11.848 -41.5802 -0.422188 0.747113 -0.5134 8
14.0794 -11.0231 -40.0859 -0.419776 0.669635 -0.61268 8
13.985 -13.0089 -43.0034 -0.438491 0.762798 -0.475253 8
40.9271 -79.6584 -29.7439 0.142859 -0.986972 -0.0740061 14
13.8465 -11.59 -40.9396 -0.489043 0.710186 -0.506431 8
13.7991 -12.5863 -42.1003 -0.466239 0.725353 -0.506443 8
41.0433 -79.0078 -30.7294 0.207758 -0.767469 -0.606488 15
13.5754 -12.9198 -42.3912 -0.353545 0.721294 -0.595601 8
13.4214 -12.2782 -41.3312 -0.471424 0.748178 -0.466894 8
41.1822 -76.6984 -33.5074 0.202624 -0.75602 -0.622397 15
41.1917 -79.9991 -30.4026 -0.0864288 -0.208127 0.974276 -1
41.2139 -77.6587 -32.3539 0.233506 -0.743839 -0.626241 15
13.3602 -11.945 -40.9799 -0.441609 0.748841 -0.494184 8
13.2196 -11.3887 -39.9408 -0.384237 0.757546 -0.527718 8
13.0938 -12.8872 -41.9695 -0.406833 0.669382 -0.621622 8
41.3482 -78.3033 -31.4519 0.243225 -0.749975 -0.615125 15
12.6848 -12.3677 -40.8109 -0.336736 0.804868 -0.488668 8
41.3594 -77.0673 -32.9834 0.220558 -0.749048 -0.624725 15
12.6601 -13.0912 -41.8851 -0.427078 0.790532 -0.438935 8
12.6191 -11.4208 -39.6642 -0.39527 0.814424 -0.424825 8
12.5591 -12.6448 -41.1897 -0.430286 0.759237 -0.488275 8
12.2174 -12.3262 -40.4428 -0.522748 0.690452 -0.50001 8
11.6882 -12.313 -39.9194 -0.416074 0.786388 -0.456592 8
11.3539 -12.742 -40.3962 -0.405503 0.794282 -0.452419 8
10.7547 -13.1522 -40.5696 -0.395456 0.74343 -0.539375 8
41.6702 -77.3713 -32.542 0.20659 -0.751974 -0.625984 15
41.7259 -79.6582 -29.3987 0.0289484 -0.981001 -0.191832 14
10.5188 -12.9935 -39.8647 -0.487911 0.677976 -0.54981 8
32.2574 -13.3712 -46.5291 0.650436 0.758024 -0.0483032 12
41.8305 -79.3417 -30.1389 0.286683 -0.671022 -0.683771 15
32.0382 -12.8614 -44.8963 0.662041 0.738542 -0.127505 12
31.9633 -13.166 -47.6933 -0.65332 -0.653718 0.381872 10
31.9149 -12.99 -47.2501 0.48593 0.864016 0.131714 12
31.8537 -12.8548 -45.6284 0.643654 0.756023 -0.118907 12
31.4994 -12.5823 -45.9086 0.632176 0.752853 -0.183211 12
41.9947 -78.7164 -30.8297 0.21892 -0.788323 -0.574997 15
42.0113 -77.8793 -31.8307 0.237443 -0.763527 -0.60054 15
31.4648 -12.9149 -48.0467 0.694593 0.522508 -0.494496 10
42.156 -80.3202 -30.0284 -0.365796 -0.436417 0.82203 -1
31.4161 -12.6464 -46.5697 0.683163 0.722755 -0.10447 12
42.2285 -76.8028 -33.034 0.144365 -0.763711 -0.629209 15
31.4124 -12.2969 -47.85 0.541975 0.832535 -0.114666 12
31.2774 -12.148 -44.7722 0.647248 0.750508 -0.13345 12
42.404 -79.5601 -29.436 0.0817707 -0.953021 -0.29166 14
31.2739 -12.652 -47.4576 0.63359 0.773415 -0.0198198 12
42.5114 -76.4489 -33.4251 0.089548 -0.796539 -0.597919 15
31.2561 -12.2584 -45.3466 0.662941 0.727378 -0.177288 12
42.5955 -77.1832 -32.4457 0.10522 -0.769126 -0.630377 15
31.0791 -13.0493 -48.4612 0.563883 0.291015 -0.772882 10
42.8329 -80.3723 -29.6248 -0.253394 -0.519932 0.815759 -1
31.014 -12.0479 -47.9976 0.795882 0.586968 -0.148461 12
42.8793 -78.4318 -30.8304 0.157045 -0.774574 -0.612676 15
30.7946 -12.1088 -47.0382 0.644763 0.750449 -0.145283 12
30.7232 -12.765 -48.6671 0.602429 0.25484 -0.756396 10
42.9149 -77.4259 -32.181 0.132593 -0.775103 -0.617766 15
42.9164 -76.7644 -33.0497 0.118366 -0.759713 -0.639395 15
43.1267 -79.0467 -29.9919 0.135641 -0.769266 -0.624364 15
30.6643 -11.8533 -45.9501 0.684236 0.713975 -0.148527 12
30.6549 -11.7629 -48.1075 0.580389 0.810704 -0.0768627 12
43.2781 -77.7331 -31.7124 0.100238 -0.805817 -0.58362 15
30.4687 -11.5242 -44.9913 0.648209 0.734615 -0.200414 12
43.4892 -80.0712 -29.4875 -0.259204 -0.200555 0.94477 -1
43.538 -76.7341 -32.8689 0.511814 -0.584991 -0.629153 16
30.3907 -13.1853 -48.9345 0.603874 0.328069 -0.726434 10
30.3663 -11.9049 -47.5225 0.625933 0.777371 -0.0624737 12
30.3424 -11.5261 -45.7601 0.645836 0.731413 -0.218931 12
30.3202 -11.5253 -46.2723 0.676214 0.731063 -0.0910043 12
30.094 -11.6594 -48.6806 -0.737887 -0.528239 0.420104 10
43.9099 -76.9238 -31.9732 0.76314 -0.374186 -0.526879 16
30.0558 -11.5625 -47.3333 0.657219 0.743692 -0.122417 12
29.9481 -13.0037 -49.3876 0.575585 0.270737 -0.771624 10
44.0822 -78.7239 -30.0745 0.433362 -0.761163 -0.482522 16
29.9104 -11.074 -45.3335 0.675187 0.723413 -0.14421 12
29.8091 -11.1083 -46.7012 0.647664 0.74382 -0.165117 12
44.2046 -77.568 -31.3346 0.796153 -0.308905 -0.520307 16
29.7928 -10.851 -44.8068 0.699585 0.69732 -0.155966 12
29.7327 -11.3508 -47.7156 0.687818 0.722111 -0.073909 12
29.7186 -10.8464 -48.8882 -0.801505 -0.404784 0.440159 10
44.408 -77.8322 -30.7638 0.766233 -0.359234 -0.532765 16
29.6234 -11.3556 -49.0301 0.662291 0.509448 -0.549393 10
44.5013 -76.5022 -31.3188 0.821521 -0.291144 -0.490244 16
29.5826 -12.634 -49.3835 0.585878 0.243502 -0.772951 10
29.5436 -10.9031 -46.3071 0.668278 0.729838 -0.144019 12
44.6216 -77.4365 -30.58 0.847325 -0.263521 -0.461082 16
29.5154 -12.0617 -49.3802 0.590888 0.233831 -0.772123 10
29.4196 -10.9384 -47.0465 0.68681 0.70917 -0.15928 12
29.3742 -11.051 -48.4677 0.56826 0.822844 0.00280424 12
44.7446 -76.8287 -30.7146 0.848118 -0.302817 -0.434738 16
29.3011 -10.9045 -47.6095 0.667419 0.734171 -0.124678 12
44.9033 -77.4646 -30.0141 -0.862335 0.25713 0.43619 16
29.2577 -10.3291 -45.1222 0.763042 0.617199 -0.191919 12
29.2172 -10.5402 -46.1854 0.751222 0.650899 -0.109527 12
29.0266 -10.7272 -48.3632 0.702555 0.711597 -0.00676224 12
28.9231 -9.85916 -44.8138 0.592193 0.792241 -0.147179 12
28.8759 -11.0692 -49.4998 0.603596 0.394398 -0.692909 10
45.1417 -77.7947 -29.3991 0.812601 -0.255795 -0.523688 16
45.2749 -76.5583 -29.9873 0.785869 -0.362918 -0.5007 16
45.5384 -76.8824 -29.4019 0.756251 -0.353296 -0.550697 16
28.8535 -10.1304 -46.8004 0.780008 0.59633 -0.189678 12
0.569123 -76.3595 -28.5077 -0.630385 -0.759532 0.160393 9
28.6538 -9.90683 -46.1333 0.606653 0.786806 -0.113617 12
28.4959 -9.67655 -45.2969 0.248129 0.967217 -0.0540769 12
0.766648 -76.3501 -27.6021 -0.636109 -0.757184 0.148451 9
28.3179 -10.1078 -49.0038 0.71578 0.68122 -0.153617 12
28.3082 -9.80763 -46.7494 0.279348 0.950595 -0.135399 12
0.906702 -76.5763 -28.0623 -0.634358 -0.763514 0.120979 9
28.2999 -9.826 -47.9655 0.479796 0.86424 -0.151279 12
28.2564 -10.1249 -49.6596 -0.664015 -0.624922 0.410556 10
28.0613 -9.66361 -44.7238 -0.0767624 0.996895 -0.017565 17
27.7707 -9.73546 -48.9482 0.265629 0.964043 0.00789385 12
27.7437 -9.64776 -47.6767 0.0261593 0.999357 -0.0245179 17
1.07734 -76.4375 -26.144 -0.625727 -0.762803 0.163087 9
27.7251 -9.72002 -49.6021 -0.18435 -0.907707 0.376939 12
27.5722 -9.76812 -45.6397 -0.132711 0.989826 0.0513011 17
27.4456 -9.72364 -48.1673 -0.0878214 0.996136 -0.000818177 17
27.2084 -9.73695 -48.6551 -0.0989597 0.989763 0.102837 17
1.2041 -76.6112 -26.8818 -0.634184 -0.764733 0.113987 9
1.20532 -76.3228 -25.1368 -0.654737 -0.744525 0.130395 9
27.2074 -9.83079 -49.5989 -0.292516 0.824763 -0.483942 8
27.113 -9.82971 -45.1629 -0.0576877 0.998332 0.00240386 17
27.1039 -9.80985 -45.8873 -0.0976673 0.993091 -0.0650466 17
26.9884 -9.82045 -47.6735 -0.132024 0.991203 0.00924797 17
26.933 -9.82843 -47.1816 -0.134937 0.989096 0.0590084 17
26.8765 -9.86257 -46.6702 -0.0726396 0.996958 0.0282491 17
26.5367 -9.85097 -45.4819 -0.0618907 0.997912 -0.0184658 17
26.4963 -9.80756 -47.9624 0.0579994 0.991513 0.116353 17
26.4813 -9.82814 -45.0054 0.00646721 0.998437 -0.0555067 17
1.50413 -77.0265 -27.7636 -0.662332 -0.734806 0.146208 9
1.53309 -76.7374 -25.7464 -0.641431 -0.758114 0.117596 9
26.3928 -10.1628 -49.2859 -0.45786 0.696684 -0.552264 8
26.3113 -9.89305 -48.3955 0.04239 0.997118 -0.0629202 17
1.57464 -76.8743 -26.7404 -0.669293 -0.736517 0.0979302 9
26.1914 -9.84694 -46.0341 0.0188648 0.999634 -0.0193977 17
26.1337 -9.80876 -47.3108 0.0303028 0.997083 0.0700465 17
26.0753 -9.85769 -46.7896 -0.0135221 0.999214 0.0372671 17
25.7284 -10.2287 -49.2385 -0.634541 0.54221 -0.550787 8
25.6864 -9.79861 -45.0703 -0.00971163 0.998715 -0.0497492 17
1.71577 -77.4207 -28.9452 -0.655531 -0.746216 0.115935 9
25.6692 -9.98199 -48.4917 -0.372915 0.927467 0.0271786 8
1.77569 -77.361 -28.2962 -0.6594 -0.74391 0.10858 9
25.561 -9.84192 -45.8797 0.0330147 0.999398 -0.0106983 17
25.5335 -9.89098 -47.8276 -0.244671 0.939519 -0.239668 8
25.3906 -9.90023 -46.6693 0.0709885 0.992159 0.10286 17
1.86811 -76.8785 -24.9069 -0.631939 -0.753389 0.181818 9
25.3078 -10.4422 -48.7203 -0.511908 0.646407 -0.565781 8
1.89074 -77.2567 -26.9968 -0.657836 -0.74366 0.119256 9
25.2058 -9.8791 -45.2505 0.0191575 0.999408 0.0285786 17
1.9185 -77.0617 -25.7077 -0.65083 -0.753474 0.0932609 9
25.1392 -10.7489 -49.1604 -0.501723 0.731493 -0.461726 8
24.841 -11.0916 -49.3949 -0.548229 0.655969 -0.518797 8
24.8175 -9.85566 -47.9808 -0.344938 0.933502 -0.0979377 8
24.8129 -9.83785 -44.7395 0.0189806 0.998158 -0.0576212 17
2.06954 -77.2692 -26.3647 -0.633897 -0.757651 0.15537 9
24.7095 -9.75487 -46.6703 0.0653736 0.996524 0.0516375 17
24.5355 -11.1209 -48.8603 -0.467803 0.704084 -0.534253 8
24.498 -9.88549 -45.5224 0.0453139 0.997353 0.0568595 17
24.3456 -9.92283 -47.9857 -0.691118 0.48924 -0.531977 8
24.1671 -9.95763 -46.9369 -0.438434 0.784465 -0.438622 8
24.0428 -11.9207 -49.619 -0.512564 0.687317 -0.514658 8
2.2093 -77.1942 -25.0303 -0.649206 -0.743811 0.158986 9
23.9209 -9.83604 -44.9063 0.0105102 0.999815 -0.016128 17
23.9119 -10.2292 -47.539 -0.472117 0.707147 -0.526355 8
2.25784 -77.8645 -28.9678 -0.664676 -0.738234 0.114961 9
23.7812 -11.6769 -49.0738 -0.436582 0.746008 -0.50286 8
23.6727 -10.782 -47.9616 -0.571619 0.660119 -0.487334 8
23.5946 -9.84259 -45.4628 0.125197 0.982661 0.136758 17
23.4098 -10.1035 -47.1531 -0.499519 0.596318 -0.628399 8
23.3764 -9.79264 -44.7297 0.0577963 0.99823 0.0140231 17
2.34522 -77.4006 -25.5828 -0.651175 -0.744764 0.145934 9
2.36272 -77.7918 -27.6683 -0.654086 -0.742649 0.14368 9
23.3711 -11.5345 -48.7338 -0.390472 0.732339 -0.557863 8
23.3428 -9.64198 -45.9227 -0.0671323 0.983862 -0.165856 8
2.42203 -77.2992 -24.4975 -0.642498 -0.753568 0.139036 9
23.341 -10.8305 -47.5021 -0.425675 0.682649 -0.593962 8
23.1708 -12.1146 -49.1211 -0.439149 0.748159 -0.4974 8
22.9334 -9.65632 -45.3688 0.099188 0.992612 0.0698795 17
2.53282 -77.7958 -26.7669 -0.661461 -0.735651 0.145899 9
22.8925 -11.8775 -48.5815 -0.455467 0.695137 -0.556178 8
22.8857 -10.2024 -46.7952 -0.495099 0.60558 -0.623017 8
22.8394 -10.5456 -47.1187 -0.582567 0.643322 -0.496741 8
22.8256 -11.4736 -48.0245 -0.456703 0.704243 -0.543565 8
22.7896 -9.82073 -46.2744 -0.472883 0.849369 -0.234422 8
22.485 -11.7266 -48.2607 -0.486326 0.66358 -0.568462 8
22.4831 -12.5532 -49.409 -0.405869 0.730797 -0.548822 8
22.4534 -10.9453 -46.8824 -0.358568 0.788462 -0.499756 8
2.78274 -77.7819 -25.5919 -0.630957 -0.764832 0.130095 9
22.433 -9.90347 -45.4842 -0.359973 0.883023 -0.301148 8
2.82416 -77.8787 -26.0595 -0.655912 -0.746754 0.110173 9
2.8248 -78.3536 -28.732 -0.682232 -0.721504 0.118283 9
2.91452 -78.1225 -26.7213 -0.655804 -0.740059 0.14911 9
22.3771 -9.62453 -45.0684 -0.131445 0.985804 -0.104464 8
2.95098 -77.7708 -24.961 -0.647106 -0.752293 0.123731 9
2.96829 -78.3184 -27.6682 -0.642793 -0.749985 0.156014 9
2.97509 -78.239 -27.1898 -0.657081 -0.74413 0.120482 9
22.1943 -12.1814 -48.6451 -0.497213 0.709966 -0.498727 8
22.1047 -11.4063 -47.4926 -0.420649 0.695361 -0.582691 8
22.0935 -10.2843 -45.8219 -0.501348 0.653915 -0.566609 8
3.15513 -78.7068 -28.9461 -0.687113 -0.711641 0.146432 9
21.8933 -12.8042 -49.2126 -0.441887 0.677465 -0.588028 8
21.8246 -10.8202 -46.1709 -0.515807 0.685769 -0.513482 8
21.7848 -12.0782 -48.3586 -0.369565 0.749462 -0.549298 8
21.7086 -11.6605 -47.2516 -0.520043 0.651599 -0.552244 8
21.6557 -10.1941 -45.3077 -0.374388 0.76695 -0.521174 8
21.6236 -12.1262 -47.8505 -0.367893 0.758481 -0.537923 8
21.5989 -13.136 -49.406 -0.457821 0.703863 -0.543118 8
21.5978 -11.1114 -46.7202 -0.518445 0.65343 -0.551583 8
21.5337 -9.81028 -44.7343 -0.341804 0.887184 -0.309959 8
21.3216 -12.0084 -47.478 -0.403955 0.667112 -0.625925 8
3.44705 -78.6252 -27.0415 -0.673263 -0.728855 0.124449 9
21.2916 -11.0082 -46.2704 -0.421927 0.711913 -0.561388 8
3.47627 -78.2591 -24.9859 -0.672226 -0.723176 0.15852 9
3.48434 -78.5935 -26.5674 -0.661867 -0.732649 0.158611 9
21.2102 -10.5232 -45.2801 -0.445905 0.597123 -0.666793 8
21.1494 -9.92768 -45.0342 -0.44954 0.5629 -0.693583 8
3.6622 -79.2312 -28.3562 -0.69378 -0.709741 0.122213 9
3.66665 -79.5767 -28.7971 -0.716421 -0.696084 0.0469867 9
20.9219 -12.5677 -48.3032 -0.445093 0.750894 -0.487904 8
20.8783 -11.2478 -46.0576 -0.420122 0.733429 -0.534397 8
20.8577 -11.8082 -46.9608 -0.378353 0.742188 -0.553178 8
20.8414 -12.9135 -48.6213 -0.362516 0.839754 -0.404221 8
20.5221 -10.2875 -44.7687 -0.51408 0.590534 -0.622087 8
20.4758 -11.3314 -45.8214 -0.41623 0.729648 -0.542556 8
3.78585 -78.6836 -25.4378 -0.658815 -0.738667 0.142596 9
3.80196 -78.7608 -25.9106 -0.696076 -0.698183 0.167389 9
20.4611 -12.6505 -47.9497 -0.46631 0.719498 -0.514662 8
20.3515 -10.8933 -45.0717 -0.481662 0.601259 -0.637566 8
3.94506 -79.5069 -27.7662 -0.464082 -0.885781 0.00451777 9
3.97026 -78.6395 -24.4871 -0.689768 -0.711166 0.135877 9
20.2169 -13.2554 -48.2771 -0.457073 0.73031 -0.507673 8
20.0074 -12.2241 -46.9051 -0.42091 0.756922 -0.499905 8
19.9409 -12.7442 -47.5941 -0.529059 0.564214 -0.633844 8
19.7941 -11.8713 -46.1513 -0.416784 0.71174 -0.565435 8
19.5752 -12.4802 -46.9274 -0.443592 0.745689 -0.497166 8
19.4567 -12.3115 -46.3647 -0.326801 0.715522 -0.617438 8
4.06887 -79.0961 -26.4421 -0.694129 -0.711917 0.106582 9
19.4188 -11.4605 -45.3654 -0.425247 0.714423 -0.555666 8
19.4084 -11.9848 -45.8367 -0.522572 0.667726 -0.530152 8
19.3284 -12.855 -47.2349 -0.376219 0.743388 -0.553022 8
19.3063 -11.2724 -44.7742 -0.482308 0.721579 -0.496692 8
4.15118 -78.9712 -24.9421 -0.72082 -0.682153 0.122828 9
19.2188 -13.385 -47.7714 -0.353608 0.749397 -0.559791 8
4.19757 -79.4822 -28.9171 -0.238553 -0.969879 0.0492596 9
4.22102 -79.5773 -25.3232 -0.732492 -0.643938 0.220906 9
19.008 -12.2505 -46.1609 -0.527213 0.711675 -0.464289 8
18.8011 -11.3038 -44.6342 -0.394586 0.78131 -0.483587 8
18.7478 -11.9154 -45.1582 -0.438663 0.722569 -0.534293 8
18.7414 -12.1989 -45.597 -0.453441 0.677239 -0.579429 8
18.7132 -12.7397 -46.3491 -0.430633 0.74145 -0.514594 8
18.4535 -13.0136 -46.6702 -0.390013 0.739626 -0.548492 8
4.39445 -79.4709 -28.019 -0.216768 -0.974606 0.0561603 9
18.4262 -11.7602 -44.6813 -0.487816 0.697099 -0.525442 8
18.4254 -12.546 -45.7711 -0.540309 0.682061 -0.492807 8
18.0924 -12.0775 -44.8864 -0.425172 0.696621 -0.577882 8
4.46667 -79.2789 -25.6824 -0.525738 -0.84337 0.111028 9
17.7626 -13.0182 -46.0635 -0.359781 0.777827 -0.515308 8
17.5802 -12.9379 -45.6197 -0.441151 0.722724 -0.532029 8
4.53929 -79.231 -25.0382 -0.542497 -0.839635 0.0266328 9
17.4832 -12.4754 -44.9472 -0.437583 0.703416 -0.560113 8
17.0656 -12.4657 -44.7291 -0.456573 0.677654 -0.576478 8
4.5837 -79.5727 -24.5103 -0.683165 -0.706168 0.186047 9
4.5938 -79.4524 -27.1211 -0.206649 -0.975244 0.0787144 9
29.4868 -12.9831 -49.751 0.63828 0.352311 -0.684453 10
29.0242 -12.9622 -50.1141 0.627049 0.337774 -0.701939 10
28.7907 -12.0537 -49.83 0.637269 0.227312 -0.736354 10
28.6676 -13.149 -50.4374 0.627813 0.33735 -0.701459 10
4.66683 -79.6627 -25.4544 -0.0219496 -0.998007 -0.0591627 14
28.5398 -12.6432 -50.4561 0.63484 0.303791 -0.710415 10
28.1402 -11.6464 -50.2259 0.558314 0.158142 -0.814418 10
28.09 -10.557 -49.9573 0.439946 0.311988 -0.842087 2
28.0228 -10.7974 -50.372 0.402106 0.283607 -0.870562 2
27.9844 -12.0119 -50.7342 0.301824 0.317089 -0.899087 2
27.4613 -11.0322 -50.4173 0.151323 0.263567 -0.952698 2
27.2424 -10.7788 -50.0728 -0.0899384 0.371401 -0.924106 2
27.1602 -11.6644 -50.6385 0.0493304 0.438382 -0.897434 2
26.8837 -10.4173 -50.3168 -0.21862 0.385933 -0.896249 2
26.8568 -12.597 -50.9002 -0.0465693 0.24151 -0.96928 2
26.3105 -13.2306 -51.1492 -0.134547 0.329557 -0.934499 2
26.1506 -12.017 -50.6759 -0.0794186 0.519607 -0.850706 2
26.1284 -11.2634 -50.2517 -0.278928 0.383488 -0.880418 2
25.9839 -12.5788 -50.8452 0.00389934 0.156679 -0.987642 2
25.5373 -10.9637 -49.8076 -0.428914 0.710257 -0.558183 8
25.4722 -13.3278 -51.0597 -0.00751472 0.342401 -0.939524 2
25.4037 -12.2747 -50.8163 -0.0195488 0.352504 -0.935606 2
25.3982 -12.8833 -50.9226 0.0548399 0.214468 -0.97519 2
5.05754 -79.5354 -28.0659 -0.00730086 -0.999856 0.0153273 14
5.08441 -79.4778 -25.7206 -0.113254 -0.993045 0.0321766 9
5.12112 -79.4966 -26.2661 -0.0873537 -0.995273 0.0424277 9
25.1957 -11.7346 -50.5057 -0.215427 0.590048 -0.778097 2
24.9749 -11.3637 -49.8854 -0.468607 0.745004 -0.474738 8
24.859 -12.099 -50.3572 -0.332696 0.422247 -0.84322 2
24.8455 -13.228 -50.8383 -0.0510363 0.308347 -0.949904 2
24.2365 -12.5458 -50.7532 -0.127395 0.39822 -0.9084 2
23.8257 -12.1668 -50.0676 -0.399834 0.797891 -0.451113 8
23.6512 -12.8501 -50.8299 -0.17009 0.522487 -0.83551 2
23.0888 -12.7 -49.9694 -0.510082 0.729068 -0.456372 8
23.0665 -13.1285 -50.7791 -0.374331 0.588261 -0.716816 2
5.38235 -79.5019 -25.2191 -0.0800945 -0.996773 0.00528981 14
22.7188 -13.2901 -50.3707 -0.379435 0.672325 -0.635616 2
22.5037 -12.9519 -50.0023 -0.388264 0.796816 -0.462965 8
29.2787 -18.2045 1.58074 0.339676 0.369468 0.864935 5
29.0791 -17.2945 1.31902 0.287789 0.397961 0.871094 5
28.8879 -16.871 1.18534 0.435259 0.265914 0.860139 5
5.59851 -79.5116 -28.3682 0.0292053 -0.999283 0.0241096 14
28.3264 -17.8236 1.75249 0.323748 0.327726 0.887571 5
5.63539 -79.5175 -27.2325 0.014925 -0.999889 -0.000233585 14
5.63995 -79.5078 -27.7179 -0.00780897 -0.999836 0.0163417 14
28.1814 -16.1364 1.29384 0.184106 0.477157 0.859318 5
5.68838 -79.5033 -24.7184 0.0060359 -0.999962 -0.00626136 14
28.1727 -17.2751 1.66159 0.346109 0.270937 0.898221 5
27.9422 -16.5734 1.51258 0.352485 0.283521 0.891835 5
5.79105 -79.4863 -26.3671 0.0311737 -0.999476 0.00876144 14
27.6422 -17.4852 1.87359 0.339348 0.248121 0.907347 5
27.3502 -17.8083 2.08394 0.379737 0.236314 0.894402 5
27.3239 -17.0295 1.9277 0.277286 0.26779 0.922714 5
27.2433 -16.3707 1.46299 -0.206162 0.749712 0.628832 19
26.4857 -16.5519 1.49088 -0.293784 0.781831 0.549938 19
26.4454 -16.9464 1.81757 -0.219641 0.727422 0.650089 19
5.92748 -79.477 -25.5171 0.00934442 -0.999899 -0.0107298 14
26.2469 -17.4871 2.44216 0.00766195 0.607565 0.794233 5
25.7571 -16.7311 1.19926 -0.223765 0.774729 0.591375 19
25.411 -17.2 1.74113 -0.244287 0.767467 0.592721 19
25.318 -17.7244 2.41179 -0.265653 0.772622 0.576614 19
24.6525 -17.7869 2.16298 -0.247801 0.788813 0.562466 19
24.2413 -17.3046 1.35799 -0.215467 0.743084 0.633561 19
24.0273 -17.8514 2.02423 -0.221178 0.752332 0.620546 19
6.0784 -79.5526 -29.3185 -0.0158085 -0.999805 0.0118738 14
23.761 -17.6795 1.6231 -0.227376 0.749896 0.621254 19
22.9676 -17.4191 1.11859 -0.204837 0.765016 0.610567 19
22.9464 -17.7781 1.5398 -0.217059 0.737879 0.639077 19
22.0604 -17.8394 1.28356 -0.211763 0.750505 0.626018 19
6.28753 -79.5078 -28.4198 -0.00305832 -0.999201 0.0398389 14
21.5894 -18.191 1.50099 -0.224766 0.742998 0.630423 19
39.4851 -17.9542 -3.4695 0.825868 0.353318 0.43944 1
39.139 -17.8361 -2.88671 0.828714 0.315962 0.461954 1
6.38096 -79.4873 -24.766 0.0124309 -0.999834 0.0133447 14
39.1082 -17.2865 -3.21574 0.822987 0.377961 0.424073 1
39.0797 -16.8951 -3.61677 0.84545 0.30967 0.435108 1
39.0782 -18.1522 -2.54195 0.848736 0.3458 0.400086 1
38.7853 -16.7669 -3.08706 0.837689 0.330898 0.434493 1
38.7809 -17.7911 -2.13346 0.872796 0.322658 0.366221 1
38.6292 -16.3251 -3.26508 0.836554 0.301168 0.457684 1
38.6261 -15.5634 -3.62508 0.859064 0.274774 0.431866 1
38.4276 -16.8395 -2.2813 0.819812 0.402627 0.407186 1
38.4188 -15.6405 -3.11894 0.874435 0.300215 0.381095 1
38.3179 -17.2081 -1.77393 0.553135 0.375594 0.74362 1
38.3111 -14.8274 -3.59301 0.872503 0.252394 0.418373 1
38.2785 -15.8287 -2.61207 0.857621 0.334821 0.39036 1
38.1895 -14.5926 -3.1449 0.844383 0.395279 0.361625 1
38.1066 -17.8174 -1.42458 0.301957 0.287574 0.908913 5
37.9924 -16.5591 -1.9402 0.438088 0.417338 0.796183 1
37.9243 -15.3304 -2.36642 0.565181 0.341908 0.75078 1
37.9165 -14.771 -2.76917 0.805422 0.353078 0.476059 1
37.8388 -17.226 -1.57673 0.247291 0.360192 0.899505 5
37.7453 -14.1696 -2.93399 0.763342 0.337437 0.550858 1
37.7397 -13.4324 -3.46169 0.875965 0.318247 0.362497 1
6.86811 -79.4928 -28.0707 0.0248352 -0.999605 0.0131456 14
37.5686 -16.6365 -1.71348 0.223413 0.335099 0.915311 5
37.5272 -13.4444 -2.96345 0.704946 0.319356 0.633296 1
37.33 -14.7022 -2.35874 0.227043 0.389776 0.892483 5
37.2274 -17.8739 -1.20216 0.250055 0.30372 0.919362 5
37.0917 -16.653 -1.5271 0.259402 0.305389 0.916214 5
37.0786 -13.4681 -2.77199 0.318578 0.357675 0.877825 5
37.0067 -14.1353 -2.50876 0.266717 0.317884 0.909841 5
36.961 -17.2807 -1.36731 0.288229 0.346389 0.892714 5
7.0371 -79.4986 -25.7573 -0.00570472 -0.999882 0.014233 14
36.8676 -14.7074 -2.26783 0.260345 0.334711 0.905643 5
36.6029 -13.8013 -2.5199 0.233723 0.333324 0.913383 5
36.2358 -17.5745 -1.00611 0.257304 0.340346 0.904411 5
36.188 -15.9583 -1.61323 0.299581 0.324935 0.897033 5
36.1569 -15.2097 -1.86353 0.274157 0.309953 0.910366 5
36.1216 -14.1693 -2.24417 0.309326 0.313634 0.897748 5
7.32257 -79.5148 -27.3172 0.00275797 -0.999996 0.000314888 14
35.9608 -17.0551 -1.13569 0.328719 0.312919 0.891081 5
7.37435 -79.4808 -26.6669 0.026463 -0.999618 0.0079662 14
35.7633 -17.687 -0.818697 0.302118 0.313461 0.900259 5
7.40062 -79.4891 -24.6142 0.010817 -0.999893 0.00986591 14
35.7127 -14.914 -1.80073 0.292372 0.327977 0.898304 5
35.5261 -16.186 -1.28609 0.287921 0.344083 0.893705 5
35.5186 -13.6863 -2.25788 0.270643 0.333561 0.903044 5
35.2572 -15.5926 -1.44261 0.300384 0.328434 0.895489 5
35.2064 -14.5284 -1.84293 0.314733 0.364243 0.87651 5
35.1981 -17.1247 -0.851783 0.292922 0.319779 0.901076 5
35.0279 -13.7744 -2.01585 0.297375 0.355993 0.88591 5
34.8144 -17.7489 -0.484054 0.305837 0.313394 0.899026 5
7.66939 -79.5033 -28.5231 -0.00325377 -0.999486 0.0318818 14
34.7636 -14.6136 -1.62357 0.279271 0.339311 0.898263 5
34.7254 -17.2487 -0.625836 0.271995 0.367936 0.88918 5
34.6778 -15.3366 -1.35128 0.311888 0.313049 0.897065 5
34.6688 -16.2733 -0.987754 0.323898 0.383008 0.865098 5
7.84788 -79.5262 -28.0583 -0.00992414 -0.999801 0.0172952 14
34.4567 -13.5007 -2.00998 0.332904 0.335387 0.8813 5
34.2042 -14.7585 -1.419 0.295547 0.308461 0.904159 5
34.0203 -14.1355 -1.58628 0.302006 0.32013 0.897947 5
33.9265 -17.6801 -0.196078 0.312948 0.303089 0.900111 5
7.97888 -79.4568 -24.5259 0.0219541 -0.998827 0.043171 14
7.98263 -79.5052 -25.661 -0.000276213 -0.999686 0.0250424 14
33.6398 -15.4429 -0.992173 0.317745 0.319141 0.892853 5
33.5687 -13.6453 -1.62618 0.222432 0.382563 0.896755 5
8.16492 -79.5109 -28.512 -0.0129162 -0.999692 0.0211797 14
8.17603 -79.4935 -27.1174 -0.0285405 -0.999571 0.00663442 14
33.4628 -16.366 -0.537513 0.280315 0.364042 0.888199 5
33.3908 -14.9838 -1.05712 0.305601 0.357485 0.882504 5
33.3642 -17.6979 -0.0034433 0.320723 0.345746 0.881815 5
33.2476 -14.2365 -1.29709 0.287842 0.336571 0.896586 5
33.0291 -15.2421 -0.840665 0.266825 0.338268 0.90243 5
8.37325 -79.504 -26.0615 -0.000148896 -0.999957 -0.0092876 14
8.40028 -79.5078 -27.9208 -0.0121102 -0.99974 -0.0193443 14
8.40934 -79.506 -26.6 -0.00628548 -0.998738 0.0498213 14
32.856 -16.5618 -0.292732 0.316404 0.401725 0.859363 5
32.7506 -15.6024 -0.601231 0.314896 0.320236 0.89347 5
32.6897 -14.3609 -1.05969 0.303406 0.311957 0.900349 5
32.6384 -14.9055 -0.84388 0.314092 0.31689 0.894945 5
32.3664 -17.6841 0.290268 0.272712 0.360697 0.891923 5
32.3324 -16.3708 -0.17762 0.313635 0.348933 0.883107 5
8.64526 -79.464 -24.641 -0.0372003 -0.999061 0.0222198 14
32.2593 -15.1805 -0.61238 0.304817 0.325319 0.895128 5
32.0863 -13.7388 -1.05293 0.443838 0.238858 0.863687 5
32.0077 -18.1479 0.632963 0.283707 0.37214 0.883755 5
8.75801 -79.5472 -28.4317 -0.0149811 -0.999723 0.0181633 14
31.9068 -16.9251 0.172356 0.29107 0.331991 0.897251 5
31.73 -14.254 -0.720093 0.321758 0.268783 0.90787 5
31.7181 -16.3186 0.0025346 0.296525 0.313461 0.902117 5
31.5389 -15.219 -0.347677 0.282736 0.350379 0.892914 5
31.2813 -18.0051 0.830764 0.316406 0.38721 0.866 5
31.2761 -16.4498 0.214252 0.30867 0.323603 0.894429 5
31.2113 -13.5234 -0.7956 0.124895 0.48423 0.865981 5
8.96901 -79.5124 -25.1329 -0.028008 -0.999349 0.0227237 14
9.05889 -79.5083 -26.2611 -0.022585 -0.999499 0.0221934 14
31.1995 -17.461 0.637795 0.303253 0.322871 0.896545 5
31.1502 -15.6617 -0.0079391 0.292312 0.36235 0.885018 5
9.16863 -79.5193 -28.1599 0.00736616 -0.999972 -0.0012391 14
9.17255 -79.5436 -27.4228 0.00323895 -0.999767 0.0213582 14
31.0519 -15.079 -0.227511 0.331878 0.313122 0.889838 5
30.9086 -13.8607 -0.558023 0.26208 0.339301 0.903432 5
30.8999 -17.0227 0.58783 0.324236 0.363151 0.873494 5
30.8531 -15.9863 0.184749 0.285305 0.357088 0.889432 5
30.6494 -13.5287 -0.81799 -0.15712 0.717094 0.679035 5
9.44216 -79.5137 -26.8136 -0.0220766 -0.999589 0.018301 14
30.503 -18.1293 1.08744 0.281938 0.299802 0.911389 5
9.47761 -79.5375 -28.763 -0.0110129 -0.999358 0.034102 14
30.4781 -15.0021 -0.0163585 0.441715 0.258849 0.859003 5
9.52182 -79.5129 -25.5052 0.00913552 -0.999839 0.0154679 14
30.3433 -13.8749 -0.537244 -0.147834 0.706938 0.691653 5
30.2986 -16.4995 0.567626 0.297289 0.348952 0.888736 5
30.2726 -16.0366 0.392266 0.353856 0.330562 0.874937 5
9.61541 -79.5364 -27.922 -0.0121506 -0.999891 0.00835027 14
29.973 -17.3616 1.00981 0.299703 0.358369 0.884166 5
29.9414 -14.7979 0.232951 0.344639 0.271791 0.898529 5
29.7072 -15.4842 0.395707 0.36548 0.19532 0.910096 5
29.4608 -15.9808 0.700447 0.364996 0.368109 0.855146 5
29.3877 -13.9919 -0.825531 -0.250627 0.754204 0.606929 19
29.3831 -16.7295 0.993792 0.24844 0.326492 0.911965 5
29.1238 -15.5461 0.658868 0.389429 0.318003 0.864418 5
29.0249 -14.3378 -0.53939 -0.240674 0.789812 0.564158 19
28.8493 -14.8537 0.216238 -0.283947 0.745079 0.603516 19
28.4243 -13.4507 -1.73069 -0.205311 0.733385 0.648069 19
28.282 -14.1916 -0.870743 -0.22147 0.757725 0.613844 19
28.2711 -15.1331 0.141375 -0.28994 0.801955 0.522305 19
28.2511 -15.6454 1.02246 -0.0699326 0.652565 0.754499 5
10.0277 -79.4879 -24.6924 -0.00798417 -0.999952 0.00577566 14
10.0648 -79.5425 -28.2015 -0.0222735 -0.99962 0.0162485 14
28.0695 -14.8345 -0.179333 -0.190211 0.749904 0.633612 19
27.8629 -15.4356 0.374788 -0.267158 0.797443 0.541028 19
10.1338 -79.5267 -26.8626 -0.00561934 -0.999945 0.00888367 14
10.1781 -79.5139 -26.2083 -0.0178679 -0.999553 0.0239853 14
27.5979 -13.4139 -2.17548 -0.23213 0.743923 0.626653 19
10.2245 -79.5443 -27.345 0.000898414 -0.999768 0.0215241 14
10.2259 -79.4919 -25.5545 -0.00449654 -0.999938 0.0101467 14
27.5957 -13.9087 -1.49588 -0.216884 0.751695 0.622829 19
27.5888 -14.9408 -0.335998 -0.199632 0.757793 0.621206 19
27.5583 -14.4272 -0.843633 -0.217348 0.729871 0.648111 19
27.2565 -14.2498 -1.2648 -0.211566 0.743677 0.63418 19
10.4333 -79.5487 -28.7276 0.00142171 -0.998537 0.0540495 14
27.1016 -13.4873 -2.23537 -0.247589 0.745405 0.618927 19
27.0137 -16.0695 0.827097 -0.293988 0.761059 0.578239 19
10.581 -79.5729 -29.1934 -0.0148088 -0.999711 0.0189429 14
26.9402 -15.0118 -0.476362 -0.24601 0.747341 0.617219 19
26.8428 -15.7274 0.359333 -0.220381 0.751819 0.62145 19
26.6824 -14.202 -1.49645 -0.201773 0.759062 0.618961 19
26.6679 -14.739 -0.808512 -0.232589 0.746213 0.623754 19
10.6534 -79.4894 -24.9912 -0.0226863 -0.999663 0.0126141 14
10.6806 -79.5226 -26.7821 -0.00511645 -0.999984 -0.0025429 14
26.6442 -13.834 -1.98721 -0.190248 0.739168 0.646093 19
26.2946 -14.6691 -1.13044 -0.176678 0.755303 0.631112 19
26.2919 -15.2576 -0.308422 -0.230117 0.749827 0.620327 19
10.896 -79.5475 -27.4978 -0.0103213 -0.99994 0.00375554 14
26.2336 -15.7119 0.111103 -0.210388 0.743858 0.63436 19
10.9167 -79.5546 -28.7282 -0.0163623 -0.999401 0.0304813 14
25.9932 -16.3588 0.817179 -0.21295 0.751555 0.624354 19
25.8904 -13.8491 -2.22484 -0.2654 0.729559 0.630322 19
25.8748 -14.8339 -0.970642 -0.231829 0.748861 0.620857 19
25.8272 -15.1942 -0.559868 -0.205446 0.760113 0.616457 19
25.647 -15.6739 -0.123501 -0.206854 0.739107 0.641039 19
25.5959 -14.5038 -1.51477 -0.230865 0.739469 0.632366 19
11.1186 -79.5211 -26.4903 -0.0030566 -0.999993 0.0021694 14
25.4846 -16.5002 0.814862 -0.205591 0.763554 0.612141 19
25.4078 -14.1241 -2.01175 -0.224749 0.749984 0.622102 19
11.2264 -79.5159 -25.0962 -0.0111461 -0.99983 0.0146603 14
25.2911 -15.3789 -0.516868 -0.188519 0.751617 0.632086 19
11.3225 -79.5053 -24.4505 0.0256374 -0.99951 0.0179496 14
25.1081 -13.482 -2.94868 -0.234977 0.735082 0.635956 19
25.0535 -14.4599 -1.76469 -0.184078 0.73401 0.653716 19
25.0087 -15.8646 -0.084787 -0.214538 0.746706 0.629606 19
24.8474 -13.8553 -2.49132 -0.219525 0.74976 0.624234 19
24.7629 -14.942 -1.29872 -0.220066 0.743762 0.63118 19
24.7309 -16.9076 1.08911 -0.204887 0.740225 0.640382 19
11.4456 -79.545 -28.2752 0.0202193 -0.999786 0.00428819 14
24.5772 -14.26 -2.2016 -0.223167 0.757985 0.612907 19
24.5368 -16.2273 0.173254 -0.247547 0.758679 0.602599 19
11.4911 -79.529 -27.6191 0.018033 -0.999836 0.0016602 14
24.3847 -16.6032 0.57987 -0.218358 0.760948 0.610965 19
24.2463 -14.5608 -1.86809 -0.215824 0.72574 0.65324 19
24.1868 -15.7434 -0.458273 -0.224368 0.748384 0.624164 19
24.1503 -13.61 -3.07015 -0.224011 0.752496 0.61933 19
11.6836 -79.5569 -26.2531 0.00323667 -0.999993 -0.00166182 14
23.9947 -14.1684 -2.42386 -0.21907 0.753819 0.619488 19
23.9457 -15.4483 -0.925458 -0.222386 0.749776 0.623201 19
23.6184 -15.9228 -0.526061 -0.21004 0.757044 0.618682 19
23.56 -15.0843 -1.57323 -0.22781 0.741728 0.630826 19
23.2922 -14.0756 -2.79203 -0.200949 0.766006 0.610618 19
23.2826 -14.5778 -2.29375 -0.224757 0.733054 0.641963 19
11.877 -79.5432 -25.7992 0.00792581 -0.999739 0.0214465 14
11.9056 -79.5042 -24.767 -0.000794963 -0.99937 0.0354748 14
23.2607 -17.0777 0.819033 -0.220252 0.765735 0.604267 19
23.0818 -16.3777 -0.1426 -0.231574 0.755919 0.61234 19
23.0771 -15.5927 -1.05254 -0.199885 0.752506 0.62752 19
22.8426 -14.8989 -2.06987 -0.220562 0.743031 0.631868 19
22.6647 -15.3849 -1.50946 -0.22672 0.75555 0.614608 19
22.5926 -14.3663 -2.7756 -0.244188 0.748166 0.616943 19
22.5789 -16.5059 -0.137212 -0.216164 0.759764 0.613214 19
22.5627 -17.1099 0.576266 -0.222756 0.756597 0.614769 19
22.4829 -14.7006 -2.41594 -0.217136 0.743341 0.632689 19
22.4659 -16.0202 -0.793966 -0.208024 0.754061 0.622991 19
22.0235 -15.0242 -2.17109 -0.221269 0.754522 0.617848 19
12.1891 -79.5384 -27.6695 -0.0168841 -0.999846 -0.00470093 14
22.0204 -17.2443 0.529744 -0.232014 0.763607 0.602556 19
12.228 -79.5401 -27.0118 -0.0243538 -0.999556 0.0171851 14
22.0047 -13.9199 -3.56125 -0.229224 0.746465 0.624697 19
21.9532 -15.6496 -1.38755 -0.208789 0.755269 0.62127 19
21.8894 -16.799 -0.0812906 -0.220007 0.743002 0.632096 19
21.5794 -14.1095 -3.43254 -0.244492 0.759328 0.60303 19
21.5327 -16.4021 -0.637655 -0.228249 0.761717 0.606375 19
12.3525 -79.5489 -26.4137 -0.00431728 -0.999989 -0.00160191 14
12.3567 -79.513 -25.0413 0.0126149 -0.999777 0.0169299 14
21.5279 -17.63 0.795682 -0.207503 0.760616 0.615147 19
21.4682 -15.1878 -2.21442 -0.217878 0.748267 0.626599 19
21.3491 -14.5895 -2.91035 -0.225131 0.762377 0.60671 19
21.3308 -17.3155 0.431919 -0.222576 0.760049 0.610562 19
21.1466 -15.4563 -1.90637 -0.227944 0.758008 0.611119 19
21.1107 -16.1973 -1.01551 -0.238401 0.76348 0.60022 19
21.0803 -14.9877 -2.58313 -0.243974 0.741973 0.624462 19
21.0692 -17.1363 0.0737292 -0.242641 0.74894 0.616615 19
21.0398 -17.6595 0.745451 -0.24501 0.753212 0.610444 19
21.0153 -16.5952 -0.615013 -0.221632 0.763506 0.606579 19
20.8003 -16.9142 -0.24614 -0.241013 0.754951 0.609887 19
20.7504 -17.9992 1.04144 -0.202366 0.754029 0.62489 19
20.6442 -14.2847 -3.53787 -0.213667 0.756974 0.617525 19
20.6251 -14.7431 -2.99917 -0.233207 0.74695 0.62264 19
20.623 -17.463 0.305309 -0.180226 0.770535 0.611388 19
20.4589 -17.8523 0.692429 -0.230553 0.749067 0.621083 19
20.3365 -16.9558 -0.424947 -0.217863 0.737675 0.639039 19
20.315 -15.3944 -2.28942 -0.215669 0.761053 0.611789 19
20.283 -16.1367 -1.39689 -0.215516 0.76448 0.607555 19
20.164 -14.4569 -3.57175 -0.223734 0.764918 0.604023 19
12.8014 -79.5606 -29.3599 0.000616809 -0.999491 0.0319102 14
19.9839 -15.9949 -1.76585 -0.222093 0.753402 0.618918 19
19.8514 -17.7522 0.335435 -0.223751 0.742516 0.631352 19
19.5374 -16.9753 -0.650806 -0.232082 0.762266 0.604226 19
12.877 -79.5786 -27.7181 0.0143895 -0.999698 0.0199215 14
19.4823 -17.3283 -0.236292 -0.225249 0.741005 0.632593 19
19.406 -16.4364 -1.41591 -0.233322 0.762414 0.603561 19
19.3926 -15.8722 -2.12535 -0.235368 0.739711 0.63042 19
19.3588 -18.125 0.599044 -0.227507 0.73611 0.637481 19
13.0231 -79.5574 -26.5619 -0.0152519 -0.999879 0.00322244 14
19.229 -14.5586 -3.7137 -0.211637 0.768496 0.603841 19
18.8535 -16.5974 -1.43325 -0.210945 0.758428 0.616676 19
18.8456 -17.5068 -0.250858 -0.240338 0.741836 0.626033 19
18.8208 -18.2305 0.618153 -0.243952 0.750432 0.61428 19
18.8128 -15.726 -2.48967 -0.237103 0.768207 0.594676 19
18.7252 -15.2507 -3.13409 -0.247048 0.751937 0.611194 19
13.2076 -79.5749 -28.4541 -0.0226515 -0.999629 0.0151245 14
