-7.515480024991e-007 0.4928415052762 -1.734723475977e-018
0.1362245936528 0.2204059209894 -0.4192549456997
-0.3566293497428 0.2204059209894 -0.2590997754675
-0.3566293497428 0.2204059209894 0.2590997754675
0.3566293497428 -0.2204059209894 -0.2590997754675
-0.1362245936528 -0.2204059209894 -0.4192549456997
-0.4408118419787 -0.2204059209894 1.734723475977e-018
7.515480024995e-007 -0.4928415052762 8.673617379884e-019
0.1304938471362 0.4747717502931 0
0.2574163248409 0.4195039861274 0
0.3648848981566 0.3296449948398 0
0.03997961642157 0.4744285141983 -0.1241
0.0795435898012 0.4194849174555 -0.2448222222222
0.1127521490808 0.3296439354692 -0.347001509329
-0.1056956186181 0.4744094455264 -0.07636388888889
-0.2082580899232 0.4194838580848 -0.1512841049383
-0.2951937466481 0.3296438766152 -0.2144713266892
-0.1053014650092 0.4744083861557 0.0769075617284
-0.2082361925005 0.4194837992309 0.1513143089849
-0.2951925301246 0.3296438733456 0.2144730046918
0.04027120169883 0.4740650912069 0.1239115312071
0.07955978898327 0.4194647272893 0.2448117517337
0.4057914855631 0.2478389397683 -0.1245861111111
0.3382717491979 0.2583549410982 -0.245688117284
0.2435693606629 0.2475891554198 -0.3471802540174
0.006912096818534 0.2478388809144 -0.4244420252794
-0.1291490501767 0.2583549378286 -0.3976273347377
-0.2549567859204 0.2475891519685 -0.3389332464941
-0.4015346164662 0.2478388776447 -0.1377400612309
-0.4180935898037 0.2583549376469 -6.055895727388e-005
-0.4011314149817 0.2475891517768 0.1377367900668
-0.2550845488815 0.2478388774631 0.3393151544533
0.4715474070857 0.1170580478199 -0.07682700617284
0.468102633727 4.489154554834e-005 -0.152037611454
0.4266601101928 -0.1173339460802 -0.214804854829
0.07264926058174 0.1170580445502 -0.4721859428322
4.440336565236e-005 4.489136390043e-005 -0.4921631079351
-0.07245809390484 -0.1173339460903 -0.472134336313
-0.4266507759005 0.1170580443686 -0.2150022131499
-0.4680750431056 4.489135380887e-005 -0.152122345175
-0.4714381602825 -0.1173339460909 -0.07699290806528
-0.3363035499236 0.1170580443585 0.3393230516623
0.2188162897165 0.1170890622755 -0.4242178412527
0.289253682762 4.661457086236e-005 -0.398159324514
0.3356412857054 -0.1173940695833 -0.3392729974895
-0.3358187173091 0.1170890620737 -0.3391936241729
-0.2892982620727 4.661455964952e-005 -0.3981274235652
-0.2189461638684 -0.1173940695844 -0.4240731503099
-0.426378573036 0.1170890620625 0.2145810898443
-0.4680599207242 4.661455902659e-005 0.1520989494358
-0.4709811068325 -0.1173940695845 0.0771753356317
0.2549872575249 -0.248327777254 -0.3390290429421
0.1292592643069 -0.2583820987363 -0.397573835719
-0.007139690180596 -0.2480762203231 -0.4237896176518
-0.2436511531956 -0.2483277772541 -0.3472376720005
-0.3381861751775 -0.2583820987363 -0.2457770928889
-0.4052408987466 -0.2480762203231 -0.1241677778308
-0.4055440527117 -0.2483277772541 0.1244125186462
0.4180767837242 -0.2583820987363 6.030299350821e-005
0.4008425690922 -0.2480762203225 -0.1377552404057
0.1055711528638 -0.4747717502931 -0.07668888888889
0.2082511751591 -0.4195039861274 -0.1513021604938
0.2946533528622 -0.3291285502607 -0.2140964566283
-0.04059822753268 -0.4744285141983 -0.123899382716
-0.07957795708515 -0.4194849174555 -0.2448110768176
-0.112563799673 -0.3291274908901 -0.3463718506761
-0.1304037486658 -0.4744094455264 0.0003361454046639
-0.2574113193703 -0.4194838580848 1.867474470355e-005
-0.3642282284893 -0.3291274320362 1.463419778445e-005
0.1782518543444 0.4386105093375 -0.1295317901235
0.3040759062279 0.3614751872873 -0.1300503343621
0.2173702560731 0.3609754803371 -0.2488374570743
-0.06812086123992 0.4385892630703 -0.2095400120027
-0.02971955976201 0.3614728852632 -0.3293601724206
-0.1695110052039 0.3609741096017 -0.2836120109602
-0.2203384092251 0.4385880827221 3.18820492303e-005
-0.3224176917815 0.361472757373 -0.0735013427648
-0.3221005460232 0.3609740334497 0.07355522689281
-0.06808064815709 0.4385678891046 0.2095608418697
-0.1695585311816 0.3614716320434 0.283930724489
-0.02957205890907 0.3609717273766 0.3290751147583
0.1782689534811 0.4385891974954 0.1295207379412
0.4669085084433 -0.1267977790161 -0.07361031177914
0.1516674242459 -0.00115896595775 -0.4667736786963
0.214419939697 -0.1268536831645 -0.4218421599645
0.07426629152944 -0.1267977790504 -0.4668042631267
-0.3970412665771 -0.001158965980238 -0.2884886447813
-0.3349540567162 -0.1268536831664 -0.3342668879748
-0.4209964222559 -0.1267977790524 -0.2148786475953
-0.4214192677113 -0.1268536831665 0.2152714897852
0.3970309840215 0.001136860580719 -0.2884791549048
0.3349440036867 0.1267981463303 -0.3342680384429
0.421038236849 0.1267684348413 -0.2148825577428
-0.1516615620267 0.001136860569378 -0.4667610010068
-0.2144241320836 0.1267981459444 -0.4218329238876
-0.07425716575118 0.1267684311762 -0.4668451297599
-0.4907752350525 0.001136860568748 8.83510151191e-006
-0.4674743740888 0.126798145923 0.07354806141617
-0.4669446463565 0.1267684309725 -0.07363157122197
0.06807728574472 -0.4386105093375 -0.2095473060509
0.02971917239516 -0.3614600687079 -0.3292857603842
0.1694859726663 -0.3609896105791 -0.2835908090121
-0.1782828473697 -0.4385892630703 -0.1295003132991
-0.3040055260641 -0.3614588262362 -0.1300284375042
-0.2173593032536 -0.3609872429801 -0.2488070246215
-0.1782462772615 -0.4385880827221 0.1295525974779
-0.3038167909279 -0.3609871114469 0.1298222044149
0.2203380200369 -0.4385891974954 -7.233207945732e-006
0.3223478833819 -0.3614600029412 -0.07347782154124
0.05962333333333 0.4873 -0.04331666666667
0.1934666666667 0.4511666666667 -0.04381666666667
0.1199233333333 0.4697 -0.08713333333333
0.1014566666667 0.4511666666667 -0.1704666666667
0.3136333333333 0.3776166666667 -0.04411666666667
0.2509 0.41425 -0.08793333333333
0.2370666666667 0.3958666666667 -0.1722333333333
0.1611666666667 0.41425 -0.21145
0.1388833333333 0.3776166666667 -0.2846333333333
0.4092 0.27125 -0.04331666666667
0.3631166666667 0.3201166666667 -0.08743333333333
0.3547833333333 0.2953 -0.1707666666667
0.2914666666667 0.3344166666667 -0.21175
0.27205 0.2953 -0.2846333333333
0.1953666666667 0.3201166666667 -0.3183
0.16765 0.27125 -0.3757833333333
-0.02277666666667 0.4873 -0.07008333333333
0.01812333333333 0.4511666666667 -0.1975333333333
-0.04581 0.4697 -0.1409666666667
-0.1307666666667 0.4511666666667 -0.14915
0.05496833333333 0.3776166666667 -0.3119
-0.006081666666667 0.41425 -0.2657833333333
-0.09054833333333 0.3958666666667 -0.2786666666667
-0.1513 0.41425 -0.2186
-0.2278 0.3776166666667 -0.2200333333333
0.08525516666667 0.27125 -0.4025666666667
0.02905683333333 0.3201166666667 -0.37235
-0.0527765 0.2953 -0.3901833333333
-0.1113316666667 0.3344166666667 -0.3426166666667
-0.1866666666667 0.2953 -0.3466833333333
-0.2423833333333 0.3201166666667 -0.2841666666667
-0.3056 0.27125 -0.2755666666667
-0.0737 0.4873 0
-0.1822666666667 0.4511666666667 -0.07826666666667
-0.1482333333333 0.4697 0
-0.1822666666667 0.4511666666667 0.07826666666667
-0.27965 0.3776166666667 -0.14865
-0.25465 0.41425 -0.07633333333333
-0.293 0.3958666666667 0
-0.25465 0.41425 0.07633333333333
-0.27965 0.3776166666667 0.14865
-0.3565166666667 0.27125 -0.2054833333333
-0.34515 0.3201166666667 -0.1427
-0.3874 0.2953 -0.07038333333333
-0.36025 0.3344166666667 0
-0.3874 0.2953 0.07038333333333
-0.34515 0.3201166666667 0.1427
-0.3565166666667 0.27125 0.2054833333333
-0.02277666666667 0.4873 0.07008333333333
-0.1307666666667 0.4511666666667 0.14915
-0.04581 0.4697 0.1409666666667
0.01812333333333 0.4511666666667 0.1975333333333
-0.2278 0.3776166666667 0.2200333333333
-0.1513 0.41425 0.2186
-0.09054833333333 0.3958666666667 0.2786666666667
-0.006081666666667 0.41425 0.2657833333333
0.05496833333333 0.3776166666667 0.3119
-0.3056 0.27125 0.2755666666667
-0.2423833333333 0.3201166666667 0.2841666666667
-0.1866666666667 0.2953 0.3466833333333
-0.1113316666667 0.3344166666667 0.3426166666667
0.05962333333333 0.4873 0.04331666666667
0.1014566666667 0.4511666666667 0.1704666666667
0.1199233333333 0.4697 0.08713333333333
0.1934666666667 0.4511666666667 0.04381666666667
0.2509 0.41425 0.08793333333333
0.3136333333333 0.3776166666667 0.04411666666667
0.4850666666667 0.03875 -0.07826666666667
0.4844166666667 -0.04251666666667 -0.07633333333333
0.4628333333333 -0.08126666666667 -0.14865
0.46025 -0.17265 0
0.4374 -0.2144166666667 -0.07038333333333
0.4407 -0.16555 -0.1427
0.4020666666667 -0.1975666666667 -0.2054833333333
0.1448833333333 0.1520333333333 -0.4458833333333
0.2243333333333 0.03875 -0.4371333333333
0.1503166666667 0.0775 -0.4626166666667
0.07545 0.03875 -0.4855
0.2844 -0.08126666666667 -0.3942166666667
0.2223 -0.04251666666667 -0.4371
0.1499166666667 -0.08503333333333 -0.4613833333333
0.07708333333333 -0.04251666666667 -0.4843
0.001633333333333 -0.08126666666667 -0.4861
0.3196666666667 -0.1975666666667 -0.3188833333333
0.2719 -0.16555 -0.3750166666667
0.2021166666667 -0.2144166666667 -0.3942166666667
0.1422333333333 -0.17265 -0.4377
0.06822816666667 -0.2144166666667 -0.4377333333333
0.0004615 -0.16555 -0.4632166666667
-0.0711885 -0.1975666666667 -0.4458833333333
-0.3792833333333 0.1520333333333 -0.2755666666667
-0.3464 0.03875 -0.3484333333333
-0.3935166666667 0.0775 -0.2859166666667
-0.4384333333333 0.03875 -0.2217833333333
-0.28705 -0.08126666666667 -0.3923
-0.3470166666667 -0.04251666666667 -0.3464833333333
-0.3924666666667 -0.08503333333333 -0.28515
-0.4367666666667 -0.04251666666667 -0.2229666666667
-0.4618166666667 -0.08126666666667 -0.1517666666667
-0.2045 -0.1975666666667 -0.4025666666667
-0.27265 -0.16555 -0.3744666666667
-0.3124833333333 -0.2144166666667 -0.3140166666667
-0.3723333333333 -0.17265 -0.2705166666667
-0.3952166666667 -0.2144166666667 -0.20015
-0.4404 -0.16555 -0.1435833333333
-0.44605 -0.1975666666667 -0.07008333333333
-0.3792833333333 0.1520333333333 0.2755666666667
-0.4384333333333 0.03875 0.2217833333333
-0.3935166666667 0.0775 0.2859166666667
-0.4618166666667 -0.08126666666667 0.1517666666667
-0.4367666666667 -0.04251666666667 0.2229666666667
-0.44605 -0.1975666666667 0.07008333333333
-0.4404 -0.16555 0.1435833333333
-0.3952166666667 -0.2144166666667 0.20015
0.3792833333333 -0.1520333333333 -0.2755666666667
0.3464 -0.03875 -0.3484333333333
0.3935166666667 -0.0775 -0.2859166666667
0.4384333333333 -0.03875 -0.2217833333333
0.28705 0.08126666666667 -0.3923
0.3470166666667 0.04251666666667 -0.3464833333333
0.3924666666667 0.08503333333333 -0.28515
0.4367666666667 0.04251666666667 -0.2229666666667
0.4618166666667 0.08126666666667 -0.1517666666667
0.2045 0.1975666666667 -0.4025666666667
0.27265 0.16555 -0.3744666666667
0.3124833333333 0.2144166666667 -0.3140166666667
0.3723333333333 0.17265 -0.2705166666667
0.3952166666667 0.2144166666667 -0.20015
0.4404 0.16555 -0.1435833333333
0.44605 0.1975666666667 -0.07008333333333
-0.1448833333333 -0.1520333333333 -0.4458833333333
-0.2243333333333 -0.03875 -0.4371333333333
-0.1503166666667 -0.0775 -0.4626166666667
-0.07545 -0.03875 -0.4855
-0.2844 0.08126666666667 -0.3942166666667
-0.2223 0.04251666666667 -0.4371
-0.1499166666667 0.08503333333333 -0.4613833333333
-0.07708333333333 0.04251666666667 -0.4843
-0.001633333333333 0.08126666666667 -0.4861
-0.3196666666667 0.1975666666667 -0.3188833333333
-0.2719 0.16555 -0.3750166666667
-0.2021166666667 0.2144166666667 -0.3942166666667
-0.1422333333333 0.17265 -0.4377
-0.06822816666667 0.2144166666667 -0.4377333333333
-0.0004615 0.16555 -0.4632166666667
0.0711885 0.1975666666667 -0.4458833333333
-0.4688333333333 -0.1520333333333 0
-0.4850666666667 -0.03875 0.07826666666667
-0.4864333333333 -0.0775 0
-0.4850666666667 -0.03875 -0.07826666666667
-0.4628333333333 0.08126666666667 0.14865
-0.4844166666667 0.04251666666667 0.07633333333333
-0.4851333333333 0.08503333333333 0
-0.4844166666667 0.04251666666667 -0.07633333333333
-0.4628333333333 0.08126666666667 -0.14865
-0.4020666666667 0.1975666666667 0.2054833333333
-0.4407 0.16555 0.1427
-0.4374 0.2144166666667 0.07038333333333
-0.46025 0.17265 0
-0.4374 0.2144166666667 -0.07038333333333
-0.4407 0.16555 -0.1427
-0.4020666666667 0.1975666666667 -0.2054833333333
-0.2719 0.16555 0.3750166666667
-0.3196666666667 0.1975666666667 0.3188833333333
0.02277666666667 -0.4873 -0.07008333333333
-0.01812333333333 -0.4511666666667 -0.1975333333333
0.04581 -0.4697 -0.1409666666667
0.1307666666667 -0.4511666666667 -0.14915
-0.05496833333333 -0.3776166666667 -0.3119
0.006081666666667 -0.41425 -0.2657833333333
0.09054833333333 -0.3958666666667 -0.2786666666667
0.1513 -0.41425 -0.2186
0.2278 -0.3776166666667 -0.2200333333333
-0.08525516666667 -0.27125 -0.4025666666667
-0.02905683333333 -0.3201166666667 -0.37235
0.0527765 -0.2953 -0.3901833333333
0.1113316666667 -0.3344166666667 -0.3426166666667
0.1866666666667 -0.2953 -0.3466833333333
0.2423833333333 -0.3201166666667 -0.2841666666667
0.3056 -0.27125 -0.2755666666667
-0.05962333333333 -0.4873 -0.04331666666667
-0.1934666666667 -0.4511666666667 -0.04381666666667
-0.1199233333333 -0.4697 -0.08713333333333
-0.1014566666667 -0.4511666666667 -0.1704666666667
-0.3136333333333 -0.3776166666667 -0.04411666666667
-0.2509 -0.41425 -0.08793333333333
-0.2370666666667 -0.3958666666667 -0.1722333333333
-0.1611666666667 -0.41425 -0.21145
-0.1388833333333 -0.3776166666667 -0.2846333333333
-0.4092 -0.27125 -0.04331666666667
-0.3631166666667 -0.3201166666667 -0.08743333333333
-0.3547833333333 -0.2953 -0.1707666666667
-0.2914666666667 -0.3344166666667 -0.21175
-0.27205 -0.2953 -0.2846333333333
-0.1953666666667 -0.3201166666667 -0.3183
-0.16765 -0.27125 -0.3757833333333
-0.05962333333333 -0.4873 0.04331666666667
-0.1199233333333 -0.4697 0.08713333333333
-0.1934666666667 -0.4511666666667 0.04381666666667
-0.2370666666667 -0.3958666666667 0.1722333333333
-0.2509 -0.41425 0.08793333333333
-0.3136333333333 -0.3776166666667 0.04411666666667
-0.3547833333333 -0.2953 0.1707666666667
-0.3631166666667 -0.3201166666667 0.08743333333333
-0.4092 -0.27125 0.04331666666667
0.02277666666667 -0.4873 0.07008333333333
0.0737 -0.4873 0
0.1822666666667 -0.4511666666667 -0.07826666666667
0.1482333333333 -0.4697 0
0.27965 -0.3776166666667 -0.14865
0.25465 -0.41425 -0.07633333333333
0.293 -0.3958666666667 0
0.3565166666667 -0.27125 -0.2054833333333
0.34515 -0.3201166666667 -0.1427
0.3874 -0.2953 -0.07038333333333
0.36025 -0.3344166666667 0
