0.057483 0.414846 0.333446 0.982957 -0.148263 -0.108690
0.046840 0.461421 0.288492 0.941101 0.240398 0.237777
0.052507 -0.488015 -0.362450 -0.333370 -0.942579 0.020214
0.079804 -0.479253 -0.330947 0.549876 0.525881 0.648911
-0.128426 0.136458 0.056954 -0.976245 0.191619 -0.101135
0.056101 0.092257 -0.263088 0.230510 -0.752835 -0.616526
0.069142 -0.468102 -0.350132 0.034588 0.996641 0.074228
-0.134064 0.156451 -0.009324 -0.882835 0.076287 0.463446
0.140980 0.098693 -0.055075 0.959021 -0.259105 0.114640
0.085935 -0.485732 0.046226 0.387772 -0.901826 -0.190636
0.116756 -0.480342 0.112816 0.844516 0.435996 0.310968
0.096270 0.054890 -0.267594 0.311600 -0.342184 0.886463
0.018062 -0.306235 0.007777 -0.646265 -0.195942 -0.737528
0.069677 -0.404731 0.044842 0.673194 0.486755 0.556668
-0.023541 -0.025002 -0.369430 0.883322 -0.218241 0.414864
0.117342 0.103119 0.015561 0.999271 -0.028962 -0.024864
-0.067134 -0.054469 -0.425055 -0.790995 0.001705 -0.611821
-0.125490 -0.488456 -0.362059 -0.262380 -0.961377 -0.083133
-0.123949 -0.480747 -0.379133 -0.897530 0.250910 -0.362607
0.034435 0.402597 0.450220 0.700042 -0.382400 0.603086
0.044605 -0.076392 0.079318 -0.242044 -0.320918 0.915656
-0.099387 -0.474535 0.117415 0.296046 0.722837 0.624390
-0.018299 0.463381 0.390259 -0.906183 0.088801 0.413458
0.037220 0.435450 0.435375 0.872658 0.486491 0.042366
-0.052042 0.447548 0.356485 -0.863367 -0.490236 -0.119440
0.029474 0.451629 0.388801 0.442258 -0.051091 0.895432
0.107747 0.055001 -0.274229 0.641953 -0.315613 0.698774
-0.096823 0.082286 0.119660 -0.954692 -0.220457 0.199905
0.091343 -0.489226 0.085393 -0.009811 -0.999804 -0.017191
-0.027179 0.404963 0.450440 0.301954 -0.601044 0.739980
0.020701 0.300441 -0.290978 0.445486 0.855245 -0.264760
-0.030251 -0.373551 -0.442334 0.921588 -0.163338 -0.352131
-0.083915 -0.434566 0.043134 -0.960223 -0.158720 -0.229738
0.125188 -0.488467 -0.363436 0.282032 -0.952628 -0.113833
0.048896 -0.201676 -0.478271 0.637399 0.083266 -0.766022
0.013240 0.391043 0.486638 0.252316 -0.936787 -0.242417
-0.036428 0.405293 0.447147 -0.915563 -0.319811 0.243855
0.059587 -0.112938 -0.388841 0.395323 -0.634685 0.663999
-0.104151 -0.486087 0.123776 0.034931 -0.004405 0.999380
0.050215 0.463370 0.261725 0.443815 -0.878575 0.176447
0.041792 -0.441146 -0.403216 -0.756804 -0.558353 0.339837
-0.106355 0.129154 0.124448 -0.901310 -0.198434 0.385050
-0.083840 0.268930 -0.001754 -0.853215 0.501627 0.142811
-0.066962 0.384593 -0.145922 -0.877294 0.479038 -0.029634
0.150106 0.138522 -0.069137 0.989421 -0.081504 0.120013
-0.057019 0.436531 0.318420 -0.965073 -0.037222 -0.259324
-0.082239 -0.476131 -0.345213 -0.825060 0.564994 0.007583
0.051793 0.412792 0.311130 0.908548 -0.206029 -0.363446
0.000173 0.338849 0.090385 0.000010 0.921639 0.388049
-0.027693 0.392118 0.464509 -0.875041 -0.009899 0.483947
-0.049926 -0.106478 -0.450011 -0.773694 0.065202 -0.630195
-0.042337 -0.486974 0.045629 0.047649 -0.998829 0.008339
-0.066263 0.471737 0.257170 -0.906230 0.216888 0.362914
0.102211 -0.474232 0.073974 0.710738 0.481363 -0.512973
0.015348 0.187657 -0.409464 -0.376818 0.039680 -0.925437
0.025365 0.176050 -0.412258 0.098608 0.226827 -0.968930
0.004912 0.048049 -0.447943 0.567199 -0.049521 -0.822091
-0.048459 0.401494 0.370353 -0.679355 -0.418071 0.603070
0.009977 0.486456 0.337446 0.058908 0.997107 -0.048033
-0.096966 -0.463113 -0.381995 -0.273217 0.896458 0.348877
-0.024765 -0.418151 0.058792 0.824884 0.158321 0.542679
0.013061 0.397613 0.428460 0.551308 -0.828270 -0.100143
0.072517 -0.483596 0.130665 0.895092 0.206869 0.394987
0.009582 0.384557 0.372420 0.432926 -0.828219 0.355848
0.047046 0.459117 0.289228 0.969672 0.059079 0.237164
0.042659 0.444110 0.288774 0.726783 -0.109090 -0.678149
0.009244 0.472259 0.264282 0.074289 0.621722 -0.779707
-0.030165 -0.370619 0.015131 0.466750 -0.212273 -0.858537
0.119294 0.033746 -0.303874 0.925918 -0.233446 0.296950
0.033672 0.456152 0.272833 0.937265 -0.306283 0.166510
-0.051817 0.082653 -0.254871 -0.283744 -0.683980 -0.672057
-0.005215 0.089833 -0.453502 -0.583384 -0.084099 -0.807831
0.017803 0.462752 0.394779 0.326450 0.744697 0.582115
0.002996 0.152600 -0.395339 -0.915784 -0.144772 -0.374674
-0.066383 -0.489131 -0.361034 -0.003553 -0.999991 0.002276
-0.047889 -0.484390 0.017306 0.077628 -0.694194 -0.715590
-0.051542 0.450468 0.342722 -0.813773 0.542222 0.209208
0.007245 0.009718 -0.446842 0.855098 -0.041131 -0.516832
-0.054604 0.181415 -0.399019 -0.406763 0.296445 -0.864097
-0.041915 0.480089 0.365353 -0.645953 0.717775 0.259889
-0.010639 0.392880 0.494898 -0.439761 0.344082 0.829589
-0.031534 0.296539 -0.284970 -0.420949 0.864129 -0.275831
-0.041134 -0.441537 -0.404949 0.762793 -0.571053 0.303390
-0.035707 -0.484731 0.028830 0.772826 -0.557094 -0.303950
-0.049969 0.396176 0.364444 -0.753235 -0.455039 0.474949
0.023914 0.452648 0.405981 0.701219 0.710490 0.059118
0.058293 0.419596 0.338651 0.996244 -0.086589 0.000076
0.026494 0.479019 0.293268 0.400058 0.887077 -0.230322
0.054591 -0.443728 -0.438621 -0.311161 -0.738625 -0.598007
0.063127 -0.436538 0.069585 0.332326 0.247275 0.910173
0.050535 0.084148 0.164465 0.300243 -0.521578 0.798630
-0.040082 0.384881 0.317102 -0.989656 -0.129505 -0.061719
-0.105967 -0.488589 0.122803 0.004359 -0.796726 0.604324
-0.002441 -0.233432 0.005583 0.892804 0.229010 -0.387886
0.032259 0.450308 0.268967 0.427845 -0.749544 -0.505106
0.041300 0.475998 0.275670 0.076757 0.910917 0.405387
0.016604 0.396233 0.472399 0.021872 -0.927494 -0.373197
-0.029212 0.400005 0.467433 -0.486938 -0.862699 -0.136534
0.010745 -0.218801 0.031879 -0.821333 0.299791 0.485323
-0.061324 0.007074 -0.075293 -0.344974 -0.938197 0.027918
0.033208 -0.481409 0.035123 -0.941767 -0.040093 -0.333867
-0.105209 0.046056 -0.018389 -0.716780 -0.636570 0.284613
-0.085521 -0.474589 0.102910 0.639566 0.540994 0.546152
0.050589 0.460068 0.358147 0.562331 0.817708 0.123031
-0.035727 0.437543 0.424578 -0.854919 0.518456 0.017801
-0.055491 -0.306032 -0.449479 -0.964668 0.175327 0.196664
-0.045162 -0.482257 -0.437051 0.935497 -0.087420 -0.342350
-0.048632 0.466916 0.363065 -0.918357 -0.233449 0.319565
-0.044339 0.473450 0.279480 -0.279042 0.805786 0.522345
0.110471 0.245858 -0.195856 0.897522 0.394187 -0.197666
-0.056818 -0.487058 0.055399 0.019389 -0.998867 -0.043462
-0.098783 -0.472785 0.113898 0.279907 0.844523 0.456545
-0.071997 -0.479491 0.094948 -0.772323 0.024223 0.634768
0.018003 0.389260 0.450800 0.487490 -0.733890 -0.473031
-0.094935 -0.437887 -0.416214 -0.995510 0.015895 0.093313
-0.013843 0.464427 0.406952 -0.909608 0.407645 0.080242
-0.082791 0.214541 0.160234 -0.709552 0.438533 0.551566
-0.045301 0.253957 0.329288 -0.972178 -0.032502 0.231976
0.048742 0.458824 0.371127 0.552811 0.791259 0.261361
-0.025816 -0.165364 -0.434344 0.706239 -0.129746 0.695983
0.124073 0.155282 0.087228 0.978526 0.096422 0.182181
0.014626 -0.312949 0.021227 -0.985877 -0.120385 0.116421
-0.015551 -0.174134 -0.480954 0.965277 0.108664 0.237555
0.083888 0.266410 0.036724 0.900000 0.433351 0.046989
0.119221 -0.488589 -0.344945 0.015972 -0.796625 0.604263
0.104428 -0.475524 -0.356042 -0.523827 0.553731 0.647293
-0.005415 -0.236117 0.033022 0.868387 0.138843 0.476052
0.090241 -0.055401 -0.355432 0.747180 -0.578403 0.327373
-0.057271 -0.120287 -0.437723 -0.860583 0.072256 -0.504159
-0.034427 0.460718 0.275559 -0.908364 -0.412432 0.069099
0.005276 0.028562 -0.447919 0.559075 0.027006 -0.828677
0.019536 0.462815 0.393334 0.174086 0.961657 0.211918
0.035603 0.361197 0.339774 0.921908 0.001323 0.387406
-0.062525 0.171766 0.194933 -0.914172 0.069239 0.399368
0.031592 -0.342555 0.009482 -0.118076 -0.159921 -0.980043
0.069579 -0.475063 0.115791 0.824551 0.565639 -0.012993
-0.025027 0.477223 0.278277 -0.372378 0.927901 0.018262
-0.057875 0.437352 0.332654 -0.990786 0.130148 0.037485
-0.082263 0.297493 -0.193066 -0.801603 0.351194 -0.483833
-0.044086 -0.378812 -0.454790 0.356660 -0.222398 -0.907377
-0.106743 0.165939 0.139623 -0.948061 -0.014618 0.317753
0.050208 0.461365 0.350037 0.841394 0.538369 0.047070
0.093202 0.252270 0.003282 0.851871 0.498693 0.160063
0.073610 -0.423134 0.027364 0.610388 0.057363 -0.790023
0.073322 -0.487904 -0.402629 -0.038586 -0.995852 -0.082399
-0.009874 0.474203 0.394853 -0.531598 0.726440 0.435531
0.001543 0.436824 0.481934 0.113620 0.116353 0.986688
0.005253 0.392737 0.497256 0.203880 0.511345 0.834841
-0.036824 -0.428774 0.070139 0.212143 0.329966 0.919846
0.015848 0.460327 0.407677 0.838233 0.536578 0.097205
-0.058619 -0.489131 0.124572 0.010239 -0.999825 -0.015647
-0.128383 0.188515 -0.248983 -0.982085 0.176144 0.066951
0.055031 -0.486922 0.048728 -0.003620 -0.999972 -0.006560
0.051633 0.472743 0.352345 0.884876 0.463430 0.047188
0.069181 0.282061 0.074836 0.817415 0.525321 0.236369
0.034760 0.404240 0.462428 0.716540 -0.696223 -0.042933
0.141649 0.133130 -0.160229 0.916489 -0.124770 -0.380105
-0.089598 -0.466087 0.090916 -0.154868 0.940614 0.302093
-0.035830 0.476060 0.267565 0.587574 0.685951 -0.429218
0.046526 -0.226868 0.024370 0.943610 0.191721 0.269894
0.028510 0.297581 0.360106 0.687431 0.040931 0.725095
-0.042387 -0.486981 0.038882 0.048120 -0.998774 -0.011624
0.021660 0.394325 0.483807 0.551323 -0.827561 0.105764
0.012300 0.443176 0.474274 0.181069 0.713246 0.677122
-0.026934 0.456444 0.391331 -0.322428 -0.138414 0.936419
0.006044 0.435328 0.480530 0.321478 -0.206156 0.924203
-0.056969 -0.415213 0.062053 -0.300906 0.490498 0.817843
-0.048132 0.036379 -0.303181 0.827558 -0.240669 0.507175
-0.100410 -0.483263 -0.416728 -0.873625 -0.419320 -0.246882
0.048203 -0.485619 0.019856 -0.072205 -0.955563 -0.285807
0.038813 0.431121 0.413092 0.969425 0.242310 -0.038736
-0.038916 0.248942 0.343602 -0.876392 -0.120655 0.466240
0.035318 0.458461 0.277298 0.904958 -0.049586 -0.422602
-0.029467 -0.418046 0.063160 0.417032 0.352819 0.837618
0.070532 -0.441309 -0.441373 0.181269 -0.613241 -0.768815
0.130381 0.119316 0.079700 0.974251 0.060140 0.217295
-0.034074 0.302380 0.120232 -0.593070 0.643466 0.483962
0.000175 0.045518 0.161730 -0.013001 -0.651169 0.758822
0.023392 0.349437 -0.023892 0.432032 0.630792 0.644555
0.027555 0.335901 0.062306 0.479289 0.876423 0.046531
0.053080 0.064535 -0.236287 0.322062 -0.677269 -0.661501
0.026620 -0.288883 0.002603 0.092292 -0.135420 -0.986480
-0.006379 -0.242288 -0.002517 0.638491 0.106069 -0.762285
-0.118713 0.164850 -0.198991 -0.867382 -0.004276 -0.497625
-0.090756 -0.488305 0.107794 0.257964 -0.952625 0.161123
0.008632 -0.212403 0.017199 -0.945047 0.314146 -0.090546
0.000158 0.118195 -0.456644 -0.000022 0.044949 -0.998989
0.038870 -0.434590 -0.400804 -0.779082 -0.345875 0.522878
-0.052708 -0.436505 0.021738 0.009513 -0.293819 -0.955814
0.082868 -0.485057 -0.366844 0.871976 -0.489296 0.015690
-0.032244 0.402871 0.451376 -0.137380 -0.102971 0.985152
0.039700 -0.338073 0.038295 0.492213 0.244245 0.835506
-0.026557 0.227172 0.202766 -0.455541 0.856386 0.243074
0.024167 0.466794 0.385621 0.498120 -0.180973 0.848012
-0.007588 0.394605 0.410999 -0.482388 -0.872412 0.078734
-0.046031 0.269169 -0.334931 -0.362272 0.792265 -0.490995
0.036253 -0.395720 -0.414012 -0.511936 0.330662 0.792833
-0.119175 0.179147 -0.337574 -0.888011 0.243925 -0.389792
-0.049312 0.379960 -0.081621 -0.755446 0.524888 0.392165
0.060569 0.072164 0.154497 0.246845 -0.520257 0.817558
-0.070674 -0.480564 0.105949 -0.984948 0.166816 -0.045281
-0.042192 -0.485788 -0.405754 0.375942 -0.926643 0.001092
-0.047890 0.463412 0.365071 -0.927336 0.145578 0.344753
0.082668 -0.448446 0.062748 0.802887 0.403529 0.438790
0.069719 -0.424492 -0.447302 0.204176 -0.168479 -0.964327
-0.047237 -0.236778 0.026074 -0.931609 0.078791 0.354820
-0.028708 -0.426749 0.032935 0.787840 -0.172945 -0.591099
-0.052078 -0.276407 -0.458856 -0.977205 0.038801 -0.208724
-0.016238 0.396233 0.472399 -0.021897 -0.927503 -0.373174
-0.051759 -0.456792 -0.417444 0.792570 0.520597 -0.317508
0.010744 0.483695 0.298761 0.142048 0.985342 -0.094463
-0.100497 0.055385 0.095348 -0.725139 -0.404142 0.557533
-0.037933 -0.449888 0.053626 0.658849 -0.744596 -0.107219
0.040493 0.326865 0.334758 0.976021 0.080262 0.202339
0.124952 -0.485477 -0.377834 0.808646 -0.481277 -0.338324
0.035192 -0.281099 0.028443 0.703537 -0.098285 0.703830
-0.051233 0.392952 0.357684 -0.843185 -0.458265 0.281128
0.000183 0.396668 0.472498 -0.000001 -0.904500 -0.426473
-0.065606 0.055983 -0.272317 0.495926 -0.314176 0.809537
0.033164 0.436216 0.458675 0.853704 0.404241 0.328297
-0.011294 0.488213 0.371044 -0.156454 0.985779 0.061332
-0.015364 0.410076 -0.079796 -0.365883 0.778000 0.510731
0.046683 -0.455677 0.040657 -0.552752 0.676731 -0.486313
0.126887 0.064592 -0.104201 0.847108 -0.526185 -0.074415
0.060047 -0.057099 -0.339035 -0.232934 -0.600625 0.764847
0.029838 -0.125582 0.021658 -0.888191 0.170677 -0.426598
-0.041882 -0.343041 -0.462008 0.133617 -0.199712 -0.970702
-0.116750 0.055092 -0.286294 -0.858023 -0.239874 0.454156
0.126614 0.111260 -0.277459 0.934631 -0.230314 0.270962
0.041560 0.471708 0.258038 -0.713973 0.335823 -0.614382
-0.027187 0.440608 0.464799 -0.785980 0.183180 0.590491
-0.055443 -0.077530 -0.440083 -0.599003 0.165367 -0.783485
-0.098908 0.095121 0.123399 -0.961392 -0.204263 0.184395
0.147757 0.118589 -0.072253 0.976459 -0.190549 0.101089
0.043899 0.391391 0.366237 0.488220 -0.606282 0.627745
0.140441 0.110409 -0.149220 0.928150 -0.261837 -0.264535
-0.034521 -0.433652 -0.423988 0.888455 -0.361329 -0.283001
0.049709 -0.487016 -0.389270 -0.340936 -0.938046 0.061914
-0.051654 0.390912 0.333279 -0.905412 -0.394801 -0.156080
0.048489 -0.229883 -0.476282 0.738379 -0.148397 -0.657857
-0.048600 -0.477065 0.131411 0.706668 0.583028 0.400873
-0.035727 0.371432 0.339986 -0.941237 -0.113157 0.318227
0.026717 0.449082 0.457341 0.911826 0.198051 -0.359652
-0.106724 0.055823 0.024242 -0.799089 -0.502368 -0.330277
-0.085869 -0.069456 0.069220 -0.736349 -0.335387 0.587627
0.063505 -0.489028 -0.379387 -0.053906 -0.998362 -0.019193
-0.001189 -0.246297 0.004503 0.910968 0.039967 -0.410537
0.035021 -0.476886 0.080590 -0.946616 0.233720 0.222020
-0.011448 0.327602 0.106277 -0.254788 0.795149 0.550293
-0.085353 -0.485818 -0.344147 -0.862021 -0.482167 -0.156318
0.055322 0.469569 0.242482 -0.623034 0.123085 -0.772449
0.095448 0.080420 0.128842 0.955254 -0.204505 0.213701
0.068168 0.475547 0.249429 0.917259 0.298109 0.264134
0.084462 0.109208 -0.399688 0.596487 0.096803 -0.796763
0.034786 -0.480314 0.099917 -0.986093 0.153698 0.063229
0.049002 -0.275477 -0.445185 0.808923 0.080461 0.582383
-0.036911 0.407081 0.448010 -0.881827 -0.417098 0.220022
0.050445 -0.393981 0.017334 0.159751 -0.087132 -0.983304
-0.031916 0.402301 0.451479 -0.192684 0.256097 0.947253
-0.114472 0.048257 -0.113857 -0.766877 -0.625908 -0.141913
0.035917 -0.276775 0.029666 0.652863 -0.366099 0.663130
-0.047772 -0.486092 -0.437072 0.319985 -0.934599 -0.155351
-0.027846 -0.180014 -0.435575 0.400766 -0.168055 0.900635
-0.046738 -0.475469 0.126659 0.644882 0.563884 0.515909
0.014757 0.209819 0.352051 0.375301 -0.401687 0.835342
0.013138 0.045904 0.161227 0.155842 -0.634962 0.756661
-0.010905 0.488121 0.365769 -0.114264 0.992026 -0.053184
0.015081 0.384217 0.456437 0.570166 -0.794192 -0.210167
-0.045423 0.423240 0.381644 -0.786182 -0.020384 0.617658
0.009482 0.156038 -0.442324 0.997037 -0.076722 -0.005475
-0.081028 -0.452856 -0.390541 -0.305086 0.724443 0.618147
-0.051914 -0.488319 0.134568 0.217237 -0.963712 0.155137
0.078273 -0.447127 0.044540 0.692755 -0.545490 -0.471732
-0.030327 0.283393 -0.322610 -0.424308 0.805351 -0.413971
0.017903 -0.229767 -0.494094 -0.180886 -0.283595 -0.941730
0.028684 0.475569 0.278920 0.471382 0.857995 0.204067
0.037694 -0.469549 0.032826 -0.760892 0.521665 -0.385886
0.024366 -0.192624 -0.437973 -0.279561 -0.137159 0.950281
-0.051713 -0.250034 -0.457140 -0.997984 -0.026465 0.057690
0.067686 -0.467565 -0.356207 0.066617 0.987627 0.141968
0.044767 0.479951 0.340526 0.597519 0.798491 -0.073369
-0.045480 0.102629 0.183183 -0.695554 -0.483709 0.531254
-0.025008 0.475022 0.270297 -0.181355 0.688543 -0.702153
0.029653 0.441347 0.461325 0.799222 0.451231 0.397032
-0.110246 0.058575 -0.160234 -0.770249 -0.579020 -0.267306
-0.149233 0.188884 -0.120349 -0.980137 0.194264 -0.039913
0.021067 0.196199 -0.409513 0.737189 -0.126377 -0.663763
0.109128 0.066889 0.009273 0.880377 -0.453517 0.138774
-0.115977 0.136203 0.020324 -0.998456 0.036146 0.042184
0.021184 -0.168078 0.038637 -0.942110 0.122348 0.312184
0.060123 -0.451694 0.036701 0.155350 -0.757833 -0.633684
0.080802 -0.419063 0.037774 0.923372 0.313484 -0.221610
-0.054020 -0.489131 0.104957 -0.003475 -0.999991 0.002394
0.100712 0.257935 -0.218190 0.818062 0.567828 -0.091360
0.017136 -0.002425 0.061851 -0.787034 -0.616309 -0.027234
0.117953 0.120630 0.015220 0.878941 -0.046902 0.474618
0.015180 -0.004070 -0.379409 -0.926352 -0.147597 0.346536
0.030258 -0.387526 0.051600 -0.266856 0.271647 0.924660
0.031727 -0.476555 0.073540 -0.858225 0.187639 0.477747
0.012372 -0.025433 -0.402148 -0.982048 -0.173529 0.073956
-0.062482 0.468764 0.240484 -0.852800 -0.332388 0.402802
-0.072879 -0.485861 0.125501 -0.886447 -0.457646 -0.069085
0.121134 0.058561 0.047996 0.836022 -0.507847 -0.207747
-0.118903 0.079174 -0.172871 -0.839936 -0.424474 -0.338125
0.037206 -0.474069 0.098248 -0.861942 0.498518 0.092392
-0.113128 0.043113 -0.051883 -0.755301 -0.646692 0.106349
-0.003035 0.154799 -0.395911 0.818437 -0.165045 -0.550383
-0.046130 0.222941 0.248070 -0.819222 0.524779 -0.231261
-0.051012 0.412352 0.311476 -0.904339 -0.217732 -0.367103
0.053713 0.440131 0.360267 0.844746 0.499172 0.192955
-0.058530 -0.452895 0.079533 -0.128877 0.714872 0.687277
-0.013785 0.398168 0.392491 -0.631824 -0.768732 0.099247
0.036187 0.427268 0.283536 0.847915 -0.115717 -0.517350
0.015681 -0.001365 -0.075654 0.016708 -0.994532 0.103091
-0.000035 0.438922 0.481088 -0.017528 0.537140 0.843311
-0.078477 -0.424786 0.052303 -0.700035 0.472177 0.535723
-0.012819 0.465117 0.416371 -0.847606 0.525223 0.075524
0.044372 -0.476583 0.123902 -0.757193 0.495705 0.425365
0.021449 0.398926 0.465881 0.021769 -0.929505 -0.368167
-0.078007 -0.046017 0.087661 -0.495717 -0.329440 0.803576
0.034067 0.105739 -0.299471 -0.791111 -0.512404 0.334045
0.021768 0.323796 0.362867 0.573503 0.089019 0.814352
-0.050692 -0.453758 -0.394003 0.914351 0.187113 0.359098
0.027434 0.380243 0.360389 0.195013 -0.768127 0.609878
-0.046470 -0.486458 -0.394333 0.322512 -0.940000 0.111291
-0.017151 0.439527 0.474801 -0.507578 0.176980 0.843233
0.000158 -0.004212 -0.450314 -0.000006 -0.068005 -0.997685
0.011560 0.381678 0.267374 0.213921 -0.161773 -0.963362
-0.095513 -0.486143 0.120880 0.525768 -0.477230 0.704145
0.025177 0.450080 0.427480 0.625640 0.778221 0.054286
0.095903 -0.465563 0.077789 0.587318 0.804322 -0.090130
0.011794 0.327602 0.106277 0.260621 0.798058 0.543306
0.024608 0.441614 0.468472 0.757768 -0.027944 0.651925
0.046017 -0.468108 0.106516 -0.353188 0.901504 0.250097
0.051851 -0.480850 0.017099 0.309366 0.015847 -0.950811
0.078581 -0.452987 0.047271 0.636721 0.239674 -0.732900
0.016084 -0.190755 -0.442280 -0.636612 0.055236 0.769203
0.056666 -0.451942 -0.424778 -0.435266 -0.815206 -0.382076
0.049195 -0.249829 -0.447444 0.808933 0.008872 0.587833
0.017140 -0.207805 0.038187 -0.707981 0.034423 0.705392
0.039175 -0.473545 0.025593 -0.707580 0.502691 -0.496621
-0.038369 0.431094 0.413038 -0.969347 0.242644 -0.038610
0.127606 -0.485689 -0.370838 0.833296 -0.480932 -0.272622
-0.079163 -0.473681 -0.336275 -0.487057 0.787379 0.377901
-0.040958 -0.483699 -0.422499 0.871406 -0.448506 -0.198728
0.043135 0.000744 -0.421297 -0.017617 0.201221 -0.979387
0.072967 -0.486695 0.125581 0.709155 -0.703615 -0.045002
0.123931 0.102358 0.092474 0.851583 -0.146699 0.503275
0.120703 -0.483483 -0.344823 0.239835 0.315104 0.918253
0.091571 -0.476183 -0.429759 0.601146 0.306912 -0.737854
0.011791 0.370278 -0.036013 0.294116 0.646322 0.704104
-0.009378 -0.262006 0.037571 0.726450 -0.291206 0.622471
0.056804 0.418719 0.359666 0.980688 -0.072557 0.181624
0.056637 -0.466192 -0.367261 -0.472579 0.839816 0.267167
0.038157 0.433829 0.394024 0.939827 0.272505 0.206073
-0.081060 -0.474012 -0.363601 -0.879926 0.444907 0.166697
-0.089868 0.030903 0.031078 -0.730849 -0.447216 -0.515614
0.018551 -0.276835 0.034827 -0.316382 -0.431924 0.844597
-0.115417 0.221978 -0.297124 -0.908812 0.395030 -0.134208
-0.090649 0.277233 -0.036957 -0.787139 0.516434 0.337206
0.067914 0.473510 0.247792 0.709517 -0.667611 -0.225568
0.032021 0.461414 0.264025 -0.240380 0.113797 -0.963985
0.009503 0.395417 0.428182 0.451378 -0.890298 -0.060227
0.043395 -0.453145 0.048659 -0.861288 -0.232723 -0.451688
-0.051793 0.451692 0.367411 -0.958517 -0.040456 0.282151
-0.009707 0.113285 -0.352360 0.921831 -0.317037 0.222967
0.031407 0.063930 -0.325536 -0.904618 -0.164424 0.393230
-0.061317 0.188290 0.193095 -0.813132 0.176775 0.554587
0.065919 -0.486666 -0.326755 -0.403074 -0.270890 0.874157
-0.104770 0.009910 -0.298961 -0.613615 -0.480163 0.626834
-0.036970 0.419362 0.398318 -0.955492 -0.284143 0.079358
-0.092907 0.040548 0.018221 -0.746417 -0.633090 -0.205081
-0.078325 -0.004070 0.028428 -0.424729 0.002351 -0.905318
0.031120 0.398575 0.442086 0.517924 -0.786484 -0.336450
0.041418 -0.098557 0.070276 -0.326782 -0.299905 0.896254
0.025167 0.430310 0.470997 0.538211 0.336327 0.772795
-0.115652 -0.489242 -0.359677 0.016406 -0.999795 -0.011864
-0.035941 0.452499 0.386910 -0.459816 -0.149628 0.875318
-0.035513 0.462625 0.277483 -0.694264 -0.646976 -0.315310
-0.071999 -0.482113 0.120143 -0.985633 0.168652 -0.009121
-0.068156 -0.489131 -0.353685 -0.002388 -0.999997 -0.000223
0.058450 -0.191726 -0.459376 0.995906 0.073103 0.053164
-0.051499 0.452860 0.343713 -0.752296 -0.605291 -0.260142
-0.029214 -0.074667 0.067063 0.929400 -0.086656 0.358757
-0.117429 0.136137 0.017477 -0.859084 -0.034199 0.510690
-0.031611 0.039799 -0.330621 0.884145 -0.137013 0.446671
0.084951 -0.481050 -0.351681 0.970519 0.221433 -0.095182
0.053003 0.058687 -0.281647 -0.731971 -0.247614 0.634749
0.064232 0.475837 0.237610 -0.478352 0.226148 -0.848550
0.110306 -0.489238 -0.370904 -0.006472 -0.999972 0.003703
-0.128164 0.095718 -0.167703 -0.875143 -0.321135 -0.361936
-0.011907 0.003153 0.052470 0.145633 -0.978933 -0.143115
-0.055774 0.092257 -0.263085 -0.228896 -0.752913 -0.617032
0.117663 -0.471297 -0.356407 0.148135 0.945377 0.290376
0.045946 0.464698 0.287379 0.871976 0.425510 0.242075
-0.013720 0.323111 0.366901 -0.353447 0.068072 0.932975
0.037898 0.259248 -0.353972 0.345471 0.732841 -0.586169
-0.049694 -0.328217 -0.435030 -0.484647 0.203929 0.850606
-0.038623 0.061889 -0.309565 0.883637 -0.173833 0.434703
-0.039483 0.413760 0.450415 -0.977735 -0.203104 0.052759
-0.092807 -0.488358 0.110669 0.251290 -0.951436 0.177827
0.059432 0.480320 0.256134 0.350791 0.894137 0.278325
0.121516 0.233332 -0.177301 0.884829 0.312596 -0.345488
-0.071414 -0.484872 0.095606 -0.818270 -0.366471 0.442870
-0.085348 -0.094949 0.042337 -0.954551 -0.265740 -0.134962
0.056428 0.446463 0.327375 0.925560 0.366947 0.093215
-0.017823 0.171173 -0.412413 0.487147 0.062866 -0.871055
0.012981 0.403095 0.487965 0.441399 0.350012 0.826231
0.028842 0.478107 0.379927 0.378616 0.656066 0.652861
0.029833 -0.001170 -0.076583 0.065837 -0.995704 0.065112
0.108709 -0.486143 -0.346516 -0.521911 -0.466023 0.714444
0.129322 -0.480341 -0.355271 0.842973 0.452110 0.291534
-0.048809 -0.486148 0.136851 0.634691 -0.504283 0.585548
-0.048029 0.453481 0.376104 -0.855817 0.034220 0.516145
0.069055 -0.463103 -0.370829 0.048397 0.897093 0.439183
-0.024949 0.486369 0.367838 -0.168461 0.971904 0.164387
0.051716 0.442941 0.360574 0.800745 0.551484 0.233823
-0.010362 0.179442 -0.435144 -0.899156 0.136103 -0.415925
-0.038606 0.358242 0.330093 -0.978079 0.047046 0.202850
-0.062060 0.162734 -0.401543 -0.457640 0.261612 -0.849779
0.014309 0.381876 0.478945 0.552779 -0.794937 0.250021
0.052011 0.457658 0.366276 0.858891 0.442999 0.257018
-0.089136 -0.468867 0.098280 0.211294 0.890550 0.402834
0.030717 0.401214 0.453548 0.380846 0.772502 0.508131
-0.127754 0.136743 0.083625 -0.972000 0.118955 0.202648
-0.025352 0.425061 0.473006 -0.569922 0.267306 0.777005
-0.109367 0.220400 0.087665 -0.897360 0.425208 -0.118082
-0.102791 0.218667 0.065752 -0.883108 0.399584 -0.245871
-0.038953 0.374272 0.327227 -0.990486 -0.062218 0.122748
-0.090802 0.033181 0.096970 -0.814963 -0.220431 0.535953
0.043104 -0.247119 0.001669 0.742129 0.013192 -0.670127
0.104169 -0.484806 0.072745 0.667411 -0.490583 -0.560260
0.040047 -0.005913 0.094696 -0.515090 -0.333755 0.789487
0.065975 0.033775 -0.282391 -0.503868 -0.382965 0.774245
0.085635 -0.463113 0.085029 0.264591 0.897586 0.352605
0.123151 0.105053 0.026625 0.889713 0.034228 -0.455235
-0.085426 -0.482741 -0.336778 -0.926956 0.234724 0.292671
0.008792 -0.229656 -0.463877 -0.966387 -0.255986 -0.023828
-0.007884 0.202585 -0.423412 -0.462112 0.554585 -0.692017
-0.007503 0.133011 -0.446776 -0.837314 -0.118090 0.533816
0.052292 -0.307701 -0.462172 0.744052 0.020546 -0.667805
0.042563 0.457053 0.286014 0.650888 -0.246395 -0.718077
0.007951 0.394605 0.410999 0.485983 -0.871299 0.068257
0.063984 -0.486980 0.037666 0.041466 -0.998833 -0.024754
-0.124422 -0.488458 -0.365255 -0.241635 -0.962297 -0.124890
-0.035250 -0.437428 -0.414450 0.836892 -0.544119 0.059546
0.000181 0.484996 0.383978 0.000002 0.823242 0.567690
-0.109505 0.044183 -0.033640 -0.728248 -0.647786 0.223667
-0.081729 0.268735 -0.288239 -0.595680 0.781205 -0.186772
0.037256 -0.083686 -0.378226 -0.835749 -0.275661 0.474905
0.054364 -0.484703 -0.446998 -0.216581 -0.822667 -0.525654
0.104366 0.097216 0.114943 0.738303 -0.254391 0.624655
0.132121 0.236219 -0.100120 0.880527 0.473236 0.026841
-0.021101 0.463191 0.388511 -0.173956 0.864414 0.471730
0.061525 -0.486343 0.025562 0.190450 -0.937009 -0.292818
-0.059349 0.056804 0.145484 -0.251649 -0.553413 0.793982
-0.022930 -0.087278 -0.431176 0.997427 0.004674 -0.071542
-0.065527 -0.387832 0.034750 -0.854134 0.420243 0.306351
-0.057304 0.417386 0.331035 -0.985605 -0.129158 -0.109093
-0.048840 0.007158 -0.008846 -0.118758 -0.977364 -0.175088
-0.011825 0.478468 0.388873 -0.300788 0.623549 0.721604
0.100181 0.141321 0.154072 0.912104 -0.140506 0.385129
-0.003521 0.123819 -0.384704 0.990716 -0.061964 -0.121003
-0.004352 0.176567 -0.402350 0.320404 -0.225493 -0.920051
-0.107542 0.196646 0.031007 -0.963679 0.232959 0.130585
0.039476 0.069804 0.161776 0.676225 -0.463290 0.572784
0.076501 -0.456872 -0.427518 0.355673 0.513286 -0.781047
0.042555 -0.105923 -0.455552 0.290411 0.321432 -0.901301
0.028254 0.419005 0.472641 0.579920 0.276871 0.766182
0.099033 0.095125 0.123755 0.953484 -0.200798 0.224830
0.094940 0.041255 0.094702 0.852066 -0.285911 0.438451
0.097202 0.082720 0.120358 0.957868 -0.198798 0.207287
0.060316 0.022955 -0.174210 0.418622 -0.844675 -0.333587
0.118587 0.102638 0.012494 0.902551 -0.085749 0.421958
0.040601 0.448441 0.383145 0.470580 -0.414168 0.779114
-0.016443 -0.276923 -0.464850 0.982222 -0.183143 0.041224
-0.016927 -0.269837 0.038465 0.288974 -0.442444 0.848962
0.071868 -0.480012 -0.327342 0.022562 0.450152 0.892667
0.030145 0.401774 0.460050 0.219441 -0.931786 -0.289171
0.020203 0.468871 0.390087 0.635428 -0.043458 0.770936
-0.024980 0.108644 -0.310251 0.446121 -0.882433 0.149289
-0.080014 -0.066097 0.076815 -0.593497 -0.357125 0.721265
0.121387 -0.479706 -0.385483 0.864932 0.294952 -0.406074
-0.058044 0.432923 0.324183 -0.991545 -0.033321 -0.125415
0.038155 0.407671 0.443164 0.923044 -0.383842 -0.025587
0.081522 -0.476183 0.037105 0.625559 0.306887 -0.717284
-0.110681 -0.472649 0.108492 -0.505844 0.860740 0.056997
0.091902 -0.475524 0.111213 -0.545153 0.553696 0.629467
-0.055145 0.290098 0.100620 -0.754329 0.587108 0.293755
-0.058450 -0.202360 -0.461807 -0.998501 -0.037925 0.039471
-0.041236 -0.479984 0.018510 0.617383 0.139628 -0.774172
0.039960 0.415461 0.458385 0.977733 -0.060476 0.200948
0.040224 -0.488015 0.103068 -0.333874 -0.942574 0.009052
-0.045787 -0.130656 0.060711 0.027522 -0.294606 0.955222
-0.082105 -0.475469 -0.347101 -0.827883 0.548802 0.115874
0.051421 0.426413 0.304432 0.920328 -0.107888 -0.375974
-0.041784 0.450934 0.383159 -0.601432 -0.131931 0.787956
-0.108800 -0.471084 -0.357855 0.210019 0.826508 0.522280
-0.016234 0.486554 0.374753 -0.246326 0.929709 0.273798
-0.095217 -0.478913 0.118476 0.582065 0.474189 0.660565
-0.008020 0.391099 0.479763 -0.190008 0.788294 0.585227
0.039493 0.366287 0.306182 0.991801 -0.026329 -0.125050
0.029008 0.108426 0.228063 0.592819 -0.699235 0.399546
-0.030220 -0.431532 0.068031 0.603318 0.067294 0.794656
0.117892 0.227237 -0.190376 0.929201 0.243478 -0.278035
-0.030408 0.371921 0.351979 -0.804063 -0.160547 0.572457
0.113166 0.038051 -0.365412 0.903105 -0.023823 -0.428758
0.037795 0.484475 0.351720 0.336686 0.941573 -0.009144
0.001794 0.172507 -0.399945 -0.646038 -0.224217 -0.729631
-0.027018 0.404110 0.450202 0.240588 0.133031 0.961468
-0.066061 -0.479955 0.136270 -0.498891 0.454413 0.737981
0.049786 -0.450228 -0.398698 -0.955781 -0.122271 0.267454
0.023273 -0.128583 -0.455716 -0.995996 0.060715 0.065618
0.068964 -0.481510 -0.326957 -0.179123 0.348673 0.919969
-0.050640 -0.249959 -0.451224 -0.940107 0.009080 0.340759
0.118560 -0.483946 0.111994 0.942067 0.207893 0.263230
0.099094 -0.482727 -0.423270 0.797297 -0.428893 -0.424699
0.000170 0.007569 -0.031550 0.001779 -0.957057 0.289894
0.030372 -0.007656 -0.348604 -0.865411 -0.171864 0.470665
-0.041020 -0.476266 -0.394006 0.856974 0.242441 0.454772
-0.023122 -0.227892 0.043017 -0.062918 0.196243 0.978535
-0.004021 0.048046 -0.441838 -0.253237 0.077807 0.964270
0.089312 0.247989 0.061714 0.899392 0.428311 -0.087430
0.010576 0.303906 -0.296573 0.329349 0.897245 -0.294075
0.039885 0.085096 0.175610 0.717345 -0.488686 0.496591
-0.083067 0.019867 -0.115912 -0.532977 -0.834253 -0.141268
-0.036278 0.375270 0.340466 -0.787189 -0.584196 0.197606
0.048056 -0.465740 -0.390444 -0.822716 0.313802 0.473991
-0.050949 0.467173 0.354384 -0.845757 -0.495359 0.198278
0.116478 0.085669 0.011243 0.928342 -0.255900 0.269621
0.050973 -0.484379 -0.445689 -0.498886 -0.627166 -0.598144
0.073860 -0.455945 0.043178 0.461717 0.356209 -0.812362
0.107153 0.076088 -0.265986 0.553886 -0.281346 0.783617
0.019974 0.006174 -0.161466 0.112013 -0.941836 -0.316857
0.091595 0.226638 0.135639 0.776743 0.471984 0.417016
-0.040986 0.019878 0.113032 -0.339959 -0.826069 0.449486
0.099131 -0.472785 0.113892 -0.279870 0.844508 0.456595
-0.019248 0.459173 0.394063 -0.754169 0.611481 0.239417
0.106388 -0.488303 0.086036 0.279378 -0.950667 -0.134834
-0.040309 -0.276635 0.011066 -0.853221 -0.370180 -0.367396
-0.016232 0.485956 0.334824 -0.069472 0.995788 -0.059834
0.020134 -0.277686 -0.475018 -0.697155 -0.364935 -0.617088
0.011570 0.436075 0.478077 0.463399 -0.177161 0.868260
0.052644 0.445482 0.305928 0.909801 -0.107355 -0.400921
-0.028003 0.446253 0.461903 -0.985489 0.138851 0.097627
0.076934 -0.087244 -0.379794 0.779187 -0.533000 0.329815
0.067348 -0.488209 -0.327702 -0.285995 -0.880525 0.377997
-0.022506 -0.342575 0.012906 0.672249 -0.198170 -0.713309
0.054495 0.431471 0.368792 0.915589 0.080480 0.393979
0.014075 0.360694 0.364702 0.473036 -0.020535 0.880804
-0.056613 0.071856 0.155416 -0.227799 -0.505946 0.831942
0.119130 0.154979 0.035792 0.920632 0.264898 -0.286820
0.042689 -0.026727 0.089938 -0.635719 -0.180063 0.750626
0.106562 0.098800 -0.213034 0.832530 -0.218463 -0.509085
0.059920 0.301582 0.064376 0.802136 0.550240 0.231979
-0.041591 0.456882 0.265506 -0.634386 -0.443122 0.633401
0.042594 0.460936 0.267669 0.606409 -0.553281 0.571093
0.015516 0.406996 0.446291 -0.286419 -0.349855 0.891945
0.121830 0.085268 0.089181 0.810664 -0.287494 0.510069
-0.050799 -0.178150 -0.468377 -0.740314 0.305664 -0.598753
0.043255 0.444728 0.379311 0.784397 0.249137 0.568024
0.000178 0.260603 0.256882 -0.000010 0.633525 -0.773722
-0.045471 0.479784 0.349398 -0.617483 0.786571 0.004621
0.101303 0.076474 0.108741 0.718595 -0.347569 0.602342
0.060320 -0.426717 0.021216 0.219297 -0.080592 -0.972324
-0.058704 0.006273 -0.418211 -0.271995 0.154985 -0.949736
0.011383 0.346509 -0.235493 0.237693 0.498239 -0.833823
-0.033078 0.425906 0.465596 -0.637621 0.394367 0.661751
0.023750 0.468723 0.387045 0.540433 -0.406586 0.736627
0.028025 -0.276042 -0.442994 -0.671402 0.018261 0.740868
-0.051115 0.453619 0.302870 -0.941825 0.238275 -0.237044
0.028119 0.465275 0.383761 0.443847 0.185155 0.876765
-0.031657 0.485568 0.353391 -0.188543 0.981472 -0.034131
-0.056935 0.013089 0.107083 0.051835 -0.286859 0.956569
-0.004377 0.480596 0.389232 -0.115744 0.732956 0.670358
-0.006795 0.170806 -0.428822 -0.500989 -0.502937 0.704318
0.148764 0.178125 -0.064142 0.983515 0.113800 0.140529
0.020666 0.008289 0.091148 -0.237246 -0.850472 0.469481
0.094559 0.061420 0.110397 0.918258 -0.268876 0.290701
-0.021311 0.457483 0.392794 -0.351692 -0.133316 0.926574
0.042507 0.461583 0.280177 -0.151764 -0.951616 -0.267200
0.043128 0.403901 0.306093 0.622421 -0.449170 -0.640967
0.040674 0.390609 0.308323 0.994011 -0.083573 -0.070413
-0.038097 0.477196 0.375112 -0.497489 0.622945 0.603692
0.050499 0.452955 0.371942 0.918944 0.007183 0.394322
0.093143 -0.488357 0.111065 -0.283356 -0.953954 0.098395
-0.106152 0.282686 -0.136325 -0.892342 0.446480 -0.066197
-0.109479 -0.005803 -0.364538 -0.939372 -0.164226 -0.301016
0.012871 0.017414 -0.403494 -0.805707 0.103750 -0.583157
-0.035826 -0.423559 0.067557 0.177106 0.410585 0.894457
-0.117647 0.117716 0.020170 -0.885471 0.082222 -0.457362
0.058428 0.461818 0.243991 0.861000 -0.364464 0.354746
0.062566 -0.478915 -0.331461 -0.648324 0.488480 0.584006
0.039184 -0.476029 -0.406082 -0.954237 0.294979 -0.049191
0.100719 0.217244 0.041804 0.949685 0.306261 0.065591
0.000180 0.315427 0.369942 0.000042 0.057855 0.998325
0.008257 0.008062 0.034598 -0.110458 -0.971482 -0.209813
-0.080847 -0.446416 0.049273 -0.856340 -0.393596 -0.334312
0.060405 -0.483437 0.140269 0.081111 0.309658 0.947382
0.000183 0.379554 0.487691 -0.001131 -0.133986 0.990983
-0.071849 -0.480911 0.113989 -0.970924 0.220355 -0.093542
0.007310 0.388555 0.387135 0.594595 -0.753924 0.279385
0.036022 0.407921 0.434849 0.811557 -0.519338 -0.267699
-0.007112 0.005408 0.096262 -0.283748 -0.942562 0.176248
-0.021119 0.453913 0.460344 -0.228174 0.845898 0.482071
0.095589 -0.002692 -0.392159 0.812318 -0.035461 -0.582136
0.111581 0.212441 -0.328598 0.848997 0.364653 -0.382404
0.100980 0.254240 -0.261384 0.787946 0.614112 -0.044803
-0.027972 -0.341692 -0.451278 0.910512 -0.186602 -0.368981
-0.124936 0.154789 0.063487 -0.972235 0.213027 -0.096848
0.004887 0.378050 0.484605 0.354567 -0.904117 0.238441
0.046066 -0.056087 -0.348602 -0.687614 -0.389402 0.612824
0.022386 0.398194 0.463077 0.184999 0.863899 0.468460
-0.013203 0.098306 -0.283459 -0.116875 -0.767473 -0.630337
0.096151 -0.029530 -0.386862 0.867078 -0.162961 -0.470764
-0.062242 -0.486148 -0.328984 0.614728 -0.504204 0.606538
0.014209 -0.260365 0.041590 -0.452518 -0.257592 0.853741
0.026911 0.012453 -0.001408 -0.286181 -0.950277 -0.122776
0.071853 -0.084819 -0.369448 0.532645 -0.633236 0.561516
-0.058148 0.427628 0.329093 -0.997293 -0.048675 -0.055119
0.012250 0.004094 0.049099 -0.208918 -0.961242 -0.179910
0.013288 0.237635 0.192635 0.310417 0.842314 0.440622
-0.018433 -0.002054 -0.121611 -0.100020 -0.990547 -0.093876
-0.007579 0.465456 0.259887 -0.040241 0.375883 -0.925793
0.034080 -0.213813 -0.490329 0.825266 -0.049907 -0.562535
-0.034375 0.450767 0.267164 -0.349707 -0.896213 0.272961
-0.015739 0.487178 0.359278 -0.074373 0.995670 -0.055773
0.088973 -0.452987 -0.419501 0.611726 0.239780 -0.753854
0.124909 -0.480754 -0.377812 0.905491 0.231235 -0.355832
-0.101295 -0.488496 0.121068 0.196177 -0.936747 0.289862
-0.137521 0.154150 -0.170062 -0.867515 -0.026800 -0.496688
-0.024035 0.453143 0.397243 -0.743492 0.660063 0.107405
-0.017389 0.461275 0.394803 -0.756220 0.447956 0.476935
0.015266 0.383950 0.463645 0.426038 -0.903418 -0.048239
-0.066757 0.476169 0.251305 -0.806789 0.485043 0.337379
0.048704 0.135093 0.226997 0.874587 -0.418296 0.245205
0.044849 0.030404 0.125298 0.317465 -0.742023 0.590439
0.121812 -0.471754 -0.362729 0.567449 0.809257 0.152000
-0.054833 0.464907 0.242890 0.546225 -0.160791 -0.822061
0.048188 0.470684 0.310181 0.776465 0.602727 -0.183909
0.031846 -0.281117 0.030985 0.500302 -0.103038 0.859698
-0.093964 -0.470396 0.107419 0.365198 0.817036 0.446186
-0.023317 0.322064 0.105403 -0.502650 0.722917 0.474062
0.048232 -0.484390 0.017303 -0.077629 -0.694196 -0.715588
0.017298 0.400866 0.413482 0.434488 -0.900668 0.004213
0.039818 0.386980 0.300980 0.984595 -0.059680 -0.164350
0.077817 -0.472140 -0.437909 0.489257 0.417848 -0.765526
-0.109801 -0.488656 -0.352110 0.151351 -0.981377 0.118285
0.001531 -0.246009 0.004503 -0.908105 0.040389 -0.416790
-0.034037 0.185601 -0.405828 -0.331604 0.202206 -0.921494
0.051667 0.480989 0.259825 -0.033972 0.990935 0.129974
-0.094560 -0.485318 -0.363597 0.712712 -0.492949 0.499041
0.015841 0.283769 0.148591 0.233640 0.606693 0.759826
0.055208 -0.466007 0.102977 0.067971 0.953974 0.292085
-0.114335 0.220731 -0.007769 -0.832562 0.404715 0.378215
-0.033401 0.409479 0.472271 -0.827225 0.016430 0.561631
0.121389 0.059364 0.065867 0.877858 -0.440793 0.187261
-0.038642 0.393817 -0.081431 -0.665431 0.603646 0.439105
-0.077094 0.359035 -0.122806 -0.899069 0.405193 0.165810
0.026218 0.457042 0.263120 0.429649 -0.113412 -0.895846
-0.123364 0.102341 0.092120 -0.835064 -0.158070 0.526956
0.032173 0.080185 0.180610 0.598055 -0.571225 0.562168
0.038216 0.433414 0.284999 0.811681 -0.167072 -0.559697
-0.062647 0.025655 0.113114 -0.200783 -0.722253 0.661844
-0.015206 0.464662 0.395258 -0.780777 0.344895 0.520994
0.114402 0.231142 -0.202666 0.949569 0.301894 -0.084730
0.090820 -0.488284 0.107996 -0.299636 -0.940349 0.161128
0.030508 -0.370109 -0.428798 -0.881152 0.100553 0.462017
0.068156 -0.474350 0.103386 0.865205 0.480271 0.144086
0.105471 0.047510 -0.379199 0.837680 -0.011642 -0.546038
-0.010858 0.416953 0.262289 -0.302150 -0.169065 -0.938148
-0.073545 0.202489 -0.378923 -0.563080 0.381258 -0.733201
0.008685 0.011074 -0.021561 0.038875 -0.958409 0.282739
-0.020443 -0.213640 -0.498891 0.124747 -0.161854 -0.978898
0.020123 -0.250276 -0.487500 -0.165423 -0.332494 -0.928484
0.043408 0.459066 0.378536 0.400963 0.846863 0.349360
-0.078236 0.356670 -0.154162 -0.922753 0.355844 -0.147991
0.041291 0.398747 0.305692 0.978985 -0.135797 -0.152140
-0.075808 -0.488760 -0.393553 0.023212 -0.998159 -0.056033
0.053268 0.466004 0.342976 0.995039 -0.062002 0.077803
0.062655 -0.488811 0.074980 -0.017640 -0.998582 -0.050222
0.030115 -0.024130 0.051240 -0.984238 -0.137406 -0.111335
-0.076784 0.024602 -0.408001 -0.505774 0.084414 -0.858526
-0.031040 0.443993 0.404393 -0.800365 0.599242 0.018023
0.006636 -0.245759 -0.002742 -0.626781 0.059303 -0.776936
-0.036863 0.458380 0.385188 -0.439928 0.623772 0.646043
0.030209 0.093071 0.198839 0.610851 -0.653849 0.446477
-0.009373 -0.188826 -0.471098 0.798057 0.320880 -0.510040
-0.049204 -0.041056 0.019827 0.328673 0.265304 -0.906415
0.122654 0.160315 -0.342153 0.907098 0.158937 -0.389760
-0.057451 0.189066 0.239013 -0.993026 0.109146 0.044562
0.024872 0.486453 0.368262 0.189308 0.967868 0.165510
0.026502 0.345777 0.279771 0.660065 -0.083661 -0.746536
0.083770 0.094827 -0.253510 0.088528 -0.777744 0.622316
-0.030288 -0.399904 -0.427348 0.994754 -0.074452 -0.070153
0.089710 0.323877 -0.144326 0.949290 0.310956 -0.046414
0.051723 0.277106 -0.314760 0.369995 0.847822 -0.379871
0.062330 -0.488082 0.065365 -0.031743 -0.996075 -0.082630
-0.075136 -0.418785 0.050806 -0.649423 0.510586 0.563517
0.023256 -0.431555 0.048405 -0.975494 -0.205956 -0.077418
0.088647 0.060553 -0.205742 0.589607 -0.625297 -0.511242
0.068369 -0.412074 -0.404447 0.322183 0.499287 0.804308
0.022535 -0.247716 -0.447238 -0.685760 -0.108841 0.719644
0.080065 -0.418079 0.043265 0.846121 0.461399 0.266815
-0.097466 -0.484412 0.065625 -0.660346 -0.480505 -0.577112
0.023752 0.042857 -0.347649 -0.882695 -0.110149 0.456855
-0.053641 0.402429 0.361389 -0.924990 -0.261162 0.276022
-0.084755 0.263818 0.039538 -0.912258 0.399629 0.089900
0.086423 -0.482961 -0.340238 0.985401 0.165989 0.037854
0.026595 -0.223090 -0.002548 0.124702 0.371258 -0.920118
0.118296 0.259187 -0.149459 0.879195 0.452461 -0.149315
0.023378 -0.051883 -0.388484 -0.910597 -0.250759 0.328531
-0.002216 0.387827 0.484395 -0.045551 0.697245 0.715384
-0.037813 0.457867 0.281666 -0.723174 -0.152284 -0.673668
-0.053264 0.415778 0.315645 -0.926684 -0.184778 -0.327283
-0.097305 -0.479031 0.065724 -0.765048 0.212088 -0.608046
-0.019998 0.454640 0.260444 -0.357877 -0.030258 -0.933278
0.053951 0.460260 0.332979 0.999931 0.009054 -0.007484
-0.109939 0.019624 -0.370432 -0.899387 -0.064275 -0.432402
-0.030241 0.449721 0.268032 -0.606769 -0.358014 -0.709688
0.065601 -0.486114 -0.444291 0.120568 -0.935039 -0.333416
-0.005229 0.002500 0.080343 -0.199448 -0.976603 0.080419
-0.058445 -0.470250 0.125054 -0.107558 0.942430 0.316634
0.047265 -0.200299 0.015870 0.868683 -0.226899 -0.440348
-0.000506 0.404894 0.450088 0.000302 0.925589 0.378531
-0.052689 0.427605 0.308695 -0.925659 -0.122772 -0.357887
-0.075667 0.215843 -0.368784 -0.562360 0.479733 -0.673504
-0.013865 -0.260365 0.041590 0.430332 -0.275280 0.859672
-0.022925 -0.431546 0.048453 0.975330 -0.207028 -0.076623
-0.013167 -0.216992 -0.447089 0.674873 -0.205065 0.708868
-0.040096 0.423385 0.432022 -0.999451 0.013427 -0.030298
0.082023 -0.488415 -0.333240 0.336692 -0.938390 0.077867
0.031440 0.474297 0.284870 0.323076 0.929363 -0.178623
-0.111762 0.145030 0.120706 -0.867739 -0.099363 0.486987
0.031986 0.012836 0.100893 -0.118704 -0.775469 0.620127
0.047621 0.471687 0.368351 0.837233 0.245676 0.488553
0.057266 0.411507 0.337672 0.987878 -0.145043 -0.055313
-0.040664 -0.455197 0.075721 0.868428 0.228018 0.440273
-0.041832 -0.403846 0.058634 -0.024390 0.400402 0.916015
0.000158 0.053042 -0.449809 -0.000021 -0.105884 -0.994378
0.071666 -0.064087 0.015830 0.396319 0.120010 -0.910235
0.094097 -0.474872 0.112505 -0.510257 0.646601 0.567050
-0.041745 0.460273 0.377174 -0.550752 0.654304 0.518226
0.006662 0.254282 -0.377205 0.228340 0.684357 -0.692471
0.101086 0.020895 -0.385119 0.813602 -0.006822 -0.581382
0.038719 -0.450228 0.066749 -0.964211 -0.122277 0.235255
-0.010204 -0.001592 -0.401406 0.985739 -0.013459 -0.167740
0.023998 -0.117170 -0.456124 -0.971015 0.158902 -0.178547
0.047707 0.313066 0.075986 0.755333 0.587994 0.289369
0.030893 0.185208 0.322646 0.737767 -0.420112 0.528400
-0.029948 0.407159 0.399208 -0.634124 -0.772903 0.022549
-0.046646 -0.478872 -0.376273 0.972528 0.218731 0.079657
0.033649 -0.414052 0.024834 -0.601807 -0.188883 -0.775984
-0.026470 0.462209 0.386200 -0.461531 0.648269 0.605588
0.028626 -0.341909 -0.451055 -0.918658 -0.179063 -0.352140
-0.038524 -0.311571 0.031562 -0.685185 0.199616 0.700482
0.009207 0.383197 0.450309 0.434629 -0.804778 -0.404265
-0.106387 -0.470396 -0.359912 0.350011 0.817044 0.458183
-0.110551 0.141355 -0.222070 -0.696651 -0.491355 0.522731
-0.047048 -0.486695 0.133812 0.609740 -0.730246 0.308153
-0.011971 0.228814 -0.397246 -0.319318 0.632224 -0.705924
-0.103683 0.033283 0.054731 -0.806485 -0.567683 -0.165283
-0.091123 0.266644 -0.243079 -0.717529 0.691477 -0.083736
0.068023 -0.455717 -0.429639 0.088340 0.672584 -0.734729
-0.037640 -0.482439 -0.405963 0.938871 -0.341605 -0.042748
0.048982 0.445532 0.371471 0.770964 -0.527561 0.356783
0.053776 0.451886 0.328084 0.879204 0.444062 0.172652
0.054948 0.403514 -0.148462 0.773600 0.632369 -0.040665
0.013511 0.040003 -0.218277 -0.039431 -0.782908 -0.620886
0.031742 0.427051 0.466452 0.711051 0.287068 0.641871
0.103925 0.033867 0.068717 0.843048 -0.488668 0.224664
0.046998 0.457614 0.290230 0.978286 -0.031599 -0.204839
0.001288 0.285898 0.150249 0.018469 0.644709 0.764205
-0.039172 0.459317 0.381680 -0.327902 0.857587 0.396262
-0.088362 -0.418704 -0.436993 -0.782777 0.072498 -0.618065
0.142274 0.206926 -0.060187 0.928352 0.313848 0.199154
0.115563 -0.485689 0.097201 0.849696 -0.459162 -0.259206
-0.011460 0.204221 -0.418816 -0.583084 0.484744 -0.651948
-0.015228 0.396949 0.435602 -0.259173 -0.909052 -0.326272
-0.002018 0.122024 -0.350890 0.670160 -0.720782 -0.177082
-0.123067 0.207030 -0.281571 -0.936890 0.344314 -0.060700
0.023481 -0.311672 0.036156 -0.334472 0.086039 0.938470
-0.007941 0.339234 -0.003325 -0.166306 0.869046 0.465942
-0.026548 0.393261 0.465842 -0.748263 0.285458 0.598846
0.084113 -0.478184 -0.338890 0.832483 0.529497 0.163110
-0.055839 -0.412980 -0.401635 -0.066344 0.476300 0.876776
-0.008017 -0.276571 0.009625 0.849624 -0.433183 -0.300819
-0.029829 0.479753 0.303132 -0.346107 0.913855 -0.212318
0.100653 0.033758 0.077329 0.902524 -0.274569 0.331756
-0.068566 0.274506 0.096370 -0.756696 0.612452 0.228723
-0.000027 0.032543 0.150438 -0.004470 -0.693545 0.720399
-0.069633 0.009226 -0.292681 0.447986 -0.412932 0.792966
0.118806 -0.472478 -0.380803 0.638893 0.734358 -0.229204
-0.079642 0.016687 -0.047367 -0.500279 -0.858285 0.114317
-0.000323 0.376856 0.465722 -0.110327 -0.981582 0.155961
0.040897 0.472811 0.376511 0.651230 0.220649 0.726094
0.105118 0.128005 0.129162 0.942399 -0.203246 0.265661
0.034868 0.460857 0.275410 0.833660 -0.484382 0.265301
0.074867 -0.406311 0.034456 0.908058 0.373556 -0.189438
-0.015051 0.441146 0.475172 -0.321408 0.515687 0.794206
0.099749 -0.039227 0.052327 0.981650 -0.148118 -0.120103
0.124131 -0.488410 -0.367685 0.291479 -0.950481 -0.107824
-0.051890 0.459815 0.358206 -0.600197 0.790210 0.123821
-0.040907 -0.293119 0.016720 -0.987259 0.101939 -0.122182
-0.021626 0.063321 -0.345880 0.898253 -0.141169 0.416188
-0.032607 0.404453 0.451835 -0.155324 -0.530112 0.833580
-0.069194 -0.486992 -0.433548 -0.027564 -0.998817 -0.040051
-0.102232 0.012947 0.066351 -0.996652 0.015713 0.080234
0.110591 0.056040 0.030249 0.725410 -0.529395 -0.439911
-0.086935 -0.487960 -0.408386 -0.014408 -0.995526 -0.093388
0.000163 0.304024 -0.303956 -0.000013 0.940963 -0.338510
0.125368 0.119251 0.093427 0.911976 -0.022908 0.409603
-0.062339 -0.452133 -0.428710 0.183450 -0.792072 -0.582210
0.012591 0.394253 -0.205395 0.188698 0.599478 -0.777830
0.051344 0.446370 0.355921 0.937590 -0.339835 -0.073736
-0.018684 0.465291 0.390421 -0.840645 -0.247549 0.481700
-0.043054 0.444723 0.379250 -0.797147 0.231555 0.557620
-0.110237 0.046176 0.073430 -0.756624 -0.509171 0.410201
-0.005147 0.389477 0.482541 -0.111501 0.734177 0.669740
-0.017007 0.470198 0.391363 -0.501502 0.351572 0.790501
-0.032798 0.436216 0.458677 -0.853682 0.404244 0.328349
0.022906 -0.236610 0.044607 0.077486 0.091472 0.992788
-0.083070 -0.441080 0.048215 -0.900110 -0.354164 -0.253713
0.094891 -0.468149 -0.372006 -0.146176 0.727077 0.670814
-0.009066 0.022494 -0.394789 0.988109 -0.013865 -0.153127
-0.084496 0.025231 -0.136902 -0.565492 -0.800347 -0.199154
-0.012386 0.298532 0.136685 -0.191437 0.651626 0.733986
-0.070772 -0.393474 -0.419858 -0.567125 0.498900 0.655338
-0.101302 -0.476272 -0.409989 -0.890064 0.259624 -0.374676
-0.093158 -0.042208 0.073531 -0.830942 -0.242648 0.500658
-0.052174 -0.449108 -0.390974 0.779641 -0.012370 0.626104
-0.145072 0.101556 -0.095875 -0.953635 -0.300920 -0.005220
