-0.793732 2.70321 -9.59493 -0.0800395 0.28032 -0.956564
-1.17036 3.98588 -9.09632 -0.123109 0.419268 -0.899477
-2.70321 0.793732 -9.59493 -0.28032 0.0800395 -0.956564
-4.11187 0.591198 -9.09632 -0.389602 0.0560156 -0.919278
-3.98588 1.17036 -9.09632 -0.419268 0.123109 -0.899477
-2.78865 0.400948 -9.59493 -0.27886 0.0400935 -0.959495
-2.81733 0 -9.59493 -0.281727 2.17441e-019 -0.959495
-4.15415 0 -9.09632 -0.436968 0 -0.899477
-4.11187 -0.591198 -9.09632 -0.389602 -0.0560156 -0.919278
-2.78865 -0.400948 -9.59493 -0.27886 -0.0400935 -0.959495
-2.70321 -0.793732 -9.59493 -0.28032 -0.0800395 -0.956564
-3.98588 -1.17036 -9.09632 -0.419268 -0.123109 -0.899477
-0.793732 -2.70321 -9.59493 -0.0800395 -0.28032 -0.956564
-0.591198 -4.11187 -9.09632 -0.0560156 -0.389602 -0.919278
-1.17036 -3.98588 -9.09632 -0.123109 -0.419268 -0.899477
-0.400948 -2.78865 -9.59493 -0.0400935 -0.27886 -0.959495
0 -2.81733 -9.59493 4.34882e-019 -0.281727 -0.959495
0 -4.15415 -9.09632 1.15968e-018 -0.436968 -0.899477
0.591198 -4.11187 -9.09632 0.0560156 -0.389602 -0.919278
0.400948 -2.78865 -9.59493 0.0400935 -0.27886 -0.959495
0.793732 -2.70321 -9.59493 0.0800395 -0.28032 -0.956564
1.17036 -3.98588 -9.09632 0.123109 -0.419268 -0.899477
4.15415 0 -9.09632 0.436968 0 -0.899477
2.70321 -0.793732 -9.59493 0.28032 -0.0800395 -0.956564
2.78865 -0.400948 -9.59493 0.27886 -0.0400935 -0.959495
4.11187 -0.591198 -9.09632 0.389602 -0.0560156 -0.919278
3.98588 -1.17036 -9.09632 0.419268 -0.123109 -0.899477
3.49469 2.2459 -9.09632 0.356647 0.237372 -0.90358
4.54816 2.92292 -8.41254 0.464662 0.292785 -0.835683
3.77875 1.7257 -9.09632 0.367349 0.17316 -0.913822
1.7257 3.77875 -9.09632 0.17316 0.367349 -0.913822
2.92292 4.54816 -8.41254 0.292785 0.464662 -0.835683
2.2459 3.49469 -9.09632 0.237372 0.356647 -0.90358
-2.2459 3.49469 -9.09632 -0.237372 0.356647 -0.90358
-2.92292 4.54816 -8.41254 -0.292785 0.464662 -0.835683
-1.7257 3.77875 -9.09632 -0.17316 0.367349 -0.913822
-3.77875 1.7257 -9.09632 -0.367349 0.17316 -0.913822
-4.54816 2.92292 -8.41254 -0.464662 0.292785 -0.835683
-3.49469 2.2459 -9.09632 -0.356647 0.237372 -0.90358
-3.49469 -2.2459 -9.09632 -0.356647 -0.237372 -0.90358
-4.54816 -2.92292 -8.41254 -0.464662 -0.292785 -0.835683
-3.77875 -1.7257 -9.09632 -0.367349 -0.17316 -0.913822
-1.7257 -3.77875 -9.09632 -0.17316 -0.367349 -0.913822
-2.92292 -4.54816 -8.41254 -0.292785 -0.464662 -0.835683
-2.2459 -3.49469 -9.09632 -0.237372 -0.356647 -0.90358
2.2459 -3.49469 -9.09632 0.237372 -0.356647 -0.90358
2.92292 -4.54816 -8.41254 0.292785 -0.464662 -0.835683
1.7257 -3.77875 -9.09632 0.17316 -0.367349 -0.913822
3.77875 -1.7257 -9.09632 0.367349 -0.17316 -0.913822
4.54816 -2.92292 -8.41254 0.464662 -0.292785 -0.835683
3.49469 -2.2459 -9.09632 0.356647 -0.237372 -0.90358
4.91784 2.2459 -8.41254 0.483623 0.213308 -0.848886
5.95682 2.72039 -7.5575 0.579121 0.264475 -0.77115
5.50904 3.54044 -7.5575 0.565385 0.3513 -0.746276
4.94911 4.28842 -7.5575 0.493771 0.418273 -0.76239
4.08589 3.54044 -8.41254 0.393313 0.340807 -0.853906
4.28842 4.94911 -7.5575 0.429221 0.504724 -0.749015
3.54044 5.50904 -7.5575 0.3513 0.565385 -0.746276
2.72039 5.95682 -7.5575 0.264475 0.579121 -0.77115
3.54044 4.08589 -8.41254 0.355119 0.407643 -0.84126
2.2459 4.91784 -8.41254 0.213308 0.483623 -0.848886
-2.2459 4.91784 -8.41254 -0.213308 0.483623 -0.848886
-2.72039 5.95682 -7.5575 -0.264475 0.579121 -0.77115
-3.54044 5.50904 -7.5575 -0.3513 0.565385 -0.746276
-4.28842 4.94911 -7.5575 -0.429221 0.504724 -0.749015
-3.54044 4.08589 -8.41254 -0.355119 0.407643 -0.84126
-4.08589 3.54044 -8.41254 -0.393313 0.340807 -0.853906
-4.94911 4.28842 -7.5575 -0.493771 0.418273 -0.76239
-5.50904 3.54044 -7.5575 -0.565385 0.3513 -0.746276
-5.95682 2.72039 -7.5575 -0.579121 0.264475 -0.77115
-4.91784 2.2459 -8.41254 -0.483623 0.213308 -0.848886
-4.91784 -2.2459 -8.41254 -0.483623 -0.213308 -0.848886
-5.95682 -2.72039 -7.5575 -0.579121 -0.264475 -0.77115
-5.50904 -3.54044 -7.5575 -0.565385 -0.3513 -0.746276
-4.94911 -4.28842 -7.5575 -0.493771 -0.418273 -0.76239
-4.08589 -3.54044 -8.41254 -0.393313 -0.340807 -0.853906
-3.54044 -4.08589 -8.41254 -0.355119 -0.407643 -0.84126
-4.28842 -4.94911 -7.5575 -0.429221 -0.504724 -0.749015
-3.54044 -5.50904 -7.5575 -0.3513 -0.565385 -0.746276
-2.72039 -5.95682 -7.5575 -0.264475 -0.579121 -0.77115
-2.2459 -4.91784 -8.41254 -0.213308 -0.483623 -0.848886
2.2459 -4.91784 -8.41254 0.213308 -0.483623 -0.848886
2.72039 -5.95682 -7.5575 0.264475 -0.579121 -0.77115
3.54044 -5.50904 -7.5575 0.3513 -0.565385 -0.746276
3.54044 -4.08589 -8.41254 0.355119 -0.407643 -0.84126
4.28842 -4.94911 -7.5575 0.429221 -0.504724 -0.749015
4.08589 -3.54044 -8.41254 0.393313 -0.340807 -0.853906
4.94911 -4.28842 -7.5575 0.493771 -0.418273 -0.76239
5.50904 -3.54044 -7.5575 0.565385 -0.3513 -0.746276
5.95682 -2.72039 -7.5575 0.579121 -0.264475 -0.77115
4.91784 -2.2459 -8.41254 0.483623 -0.213308 -0.848886
6.35777 4.08589 -6.54861 0.636372 0.407646 -0.654871
5.71158 4.94911 -6.54861 0.57188 0.494062 -0.654871
4.94911 5.71158 -6.54861 0.504986 0.582786 -0.636671
4.08589 6.35777 -6.54861 0.407646 0.636372 -0.654871
-4.08589 6.35777 -6.54861 -0.407646 0.636372 -0.654871
-4.94911 5.71158 -6.54861 -0.504986 0.582786 -0.636671
-6.35777 4.08589 -6.54861 -0.636372 0.407646 -0.654871
-5.71158 4.94911 -6.54861 -0.57188 0.494062 -0.654871
-6.35777 -4.08589 -6.54861 -0.636372 -0.407646 -0.654871
-5.71158 -4.94911 -6.54861 -0.57188 -0.494062 -0.654871
-4.08589 -6.35777 -6.54861 -0.407646 -0.636372 -0.654871
-4.94911 -5.71158 -6.54861 -0.504986 -0.582786 -0.636671
4.08589 -6.35777 -6.54861 0.407646 -0.636372 -0.654871
4.94911 -5.71158 -6.54861 0.504986 -0.582786 -0.636671
6.35777 -4.08589 -6.54861 0.636372 -0.407646 -0.654871
5.71158 -4.94911 -6.54861 0.57188 -0.494062 -0.654871
7.65231 3.49469 -5.40641 0.753288 0.344015 -0.560545
7.07708 4.54816 -5.40641 0.707856 0.464658 -0.532008
6.87454 3.1395 -6.54861 0.673054 0.307374 -0.672696
4.54816 7.07708 -5.40641 0.464658 0.707856 -0.532008
3.49469 7.65231 -5.40641 0.344015 0.753288 -0.560545
3.1395 6.87454 -6.54861 0.307374 0.673054 -0.672696
-3.49469 7.65231 -5.40641 -0.344015 0.753288 -0.560545
-4.54816 7.07708 -5.40641 -0.464658 0.707856 -0.532008
-3.1395 6.87454 -6.54861 -0.307374 0.673054 -0.672696
-7.65231 3.49469 -5.40641 -0.753288 0.344015 -0.560545
-7.07708 4.54816 -5.40641 -0.707856 0.464658 -0.532008
-6.87454 3.1395 -6.54861 -0.673054 0.307374 -0.672696
-7.65231 -3.49469 -5.40641 -0.753288 -0.344015 -0.560545
-7.07708 -4.54816 -5.40641 -0.707856 -0.464658 -0.532008
-6.87454 -3.1395 -6.54861 -0.673054 -0.307374 -0.672696
-3.49469 -7.65231 -5.40641 -0.344015 -0.753288 -0.560545
-4.54816 -7.07708 -5.40641 -0.464658 -0.707856 -0.532008
-3.1395 -6.87454 -6.54861 -0.307374 -0.673054 -0.672696
3.49469 -7.65231 -5.40641 0.344015 -0.753288 -0.560545
4.54816 -7.07708 -5.40641 0.464658 -0.707856 -0.532008
3.1395 -6.87454 -6.54861 0.307374 -0.673054 -0.672696
6.87454 -3.1395 -6.54861 0.673054 -0.307374 -0.672696
7.65231 -3.49469 -5.40641 0.753288 -0.344015 -0.560545
7.07708 -4.54816 -5.40641 0.707856 -0.464658 -0.532008
8.07177 2.37009 -5.40641 0.819306 0.240571 -0.520445
9.00373 1.29454 -4.15415 0.897446 0.119338 -0.424676
8.32691 1.19723 -5.40641 0.823258 0.129964 -0.55259
8.72786 2.56273 -4.15415 0.882098 0.245008 -0.402336
6.87454 5.95682 -4.15415 0.679773 0.589027 -0.436984
7.65231 4.91784 -4.15415 0.762817 0.506199 -0.402335
6.35777 5.50904 -5.40641 0.622305 0.554421 -0.552588
5.95682 6.87454 -4.15415 0.596213 0.686989 -0.415424
5.50904 6.35777 -5.40641 0.565374 0.633261 -0.528519
4.91784 7.65231 -4.15415 0.506199 0.762817 -0.402335
2.37009 8.07177 -5.40641 0.240571 0.819306 -0.520445
1.29454 9.00373 -4.15415 0.119338 0.897446 -0.424676
2.56273 8.72786 -4.15415 0.245008 0.882098 -0.402336
1.19723 8.32691 -5.40641 0.129964 0.823258 -0.55259
0 8.41254 -5.40641 2.61344e-018 0.841248 -0.54065
0 9.09632 -4.15415 0 0.909628 -0.415423
-1.29454 9.00373 -4.15415 -0.119338 0.897446 -0.424676
-1.19723 8.32691 -5.40641 -0.129964 0.823258 -0.55259
-2.37009 8.07177 -5.40641 -0.240571 0.819306 -0.520445
-2.56273 8.72786 -4.15415 -0.245008 0.882098 -0.402336
-5.95682 6.87454 -4.15415 -0.596213 0.686989 -0.415424
-4.91784 7.65231 -4.15415 -0.506199 0.762817 -0.402335
-5.50904 6.35777 -5.40641 -0.565374 0.633261 -0.528519
-6.87454 5.95682 -4.15415 -0.679773 0.589027 -0.436984
-6.35777 5.50904 -5.40641 -0.622305 0.554421 -0.552588
-7.65231 4.91784 -4.15415 -0.762817 0.506199 -0.402335
-8.07177 2.37009 -5.40641 -0.819306 0.240571 -0.520445
-9.00373 1.29454 -4.15415 -0.897446 0.119338 -0.424676
-8.72786 2.56273 -4.15415 -0.882098 0.245008 -0.402336
-8.32691 1.19723 -5.40641 -0.823258 0.129964 -0.55259
-8.41254 0 -5.40641 -0.841248 2.61344e-018 -0.54065
-9.09632 0 -4.15415 -0.909628 0 -0.415423
-9.00373 -1.29454 -4.15415 -0.897446 -0.119338 -0.424676
-8.32691 -1.19723 -5.40641 -0.823258 -0.129964 -0.55259
-8.07177 -2.37009 -5.40641 -0.819306 -0.240571 -0.520445
-8.72786 -2.56273 -4.15415 -0.882098 -0.245008 -0.402336
-6.87454 -5.95682 -4.15415 -0.679773 -0.589027 -0.436984
-7.65231 -4.91784 -4.15415 -0.762817 -0.506199 -0.402335
-6.35777 -5.50904 -5.40641 -0.622305 -0.554421 -0.552588
-5.95682 -6.87454 -4.15415 -0.596213 -0.686989 -0.415424
-5.50904 -6.35777 -5.40641 -0.565374 -0.633261 -0.528519
-4.91784 -7.65231 -4.15415 -0.506199 -0.762817 -0.402335
-2.37009 -8.07177 -5.40641 -0.240571 -0.819306 -0.520445
-1.29454 -9.00373 -4.15415 -0.119338 -0.897446 -0.424676
-2.56273 -8.72786 -4.15415 -0.245008 -0.882098 -0.402336
-1.19723 -8.32691 -5.40641 -0.129964 -0.823258 -0.55259
0 -8.41254 -5.40641 1.74229e-018 -0.841248 -0.54065
0 -9.09632 -4.15415 0 -0.909628 -0.415423
1.29454 -9.00373 -4.15415 0.119338 -0.897446 -0.424676
1.19723 -8.32691 -5.40641 0.129964 -0.823258 -0.55259
2.37009 -8.07177 -5.40641 0.240571 -0.819306 -0.520445
2.56273 -8.72786 -4.15415 0.245008 -0.882098 -0.402336
5.95682 -6.87454 -4.15415 0.596213 -0.686989 -0.415424
4.91784 -7.65231 -4.15415 0.506199 -0.762817 -0.402335
5.50904 -6.35777 -5.40641 0.565374 -0.633261 -0.528519
6.87454 -5.95682 -4.15415 0.679773 -0.589027 -0.436984
6.35777 -5.50904 -5.40641 0.622305 -0.554421 -0.552588
7.65231 -4.91784 -4.15415 0.762817 -0.506199 -0.402335
9.09632 0 -4.15415 0.909628 0 -0.415423
8.41254 0 -5.40641 0.841248 8.71145e-019 -0.54065
8.07177 -2.37009 -5.40641 0.819306 -0.240571 -0.520445
8.32691 -1.19723 -5.40641 0.823258 -0.129964 -0.55259
9.00373 -1.29454 -4.15415 0.897446 -0.119338 -0.424676
8.72786 -2.56273 -4.15415 0.882098 -0.245008 -0.402336
9.59493 0 -2.81733 0.952503 -4.64713e-018 -0.30453
9.49727 1.3655 -2.81733 0.949792 0.136075 -0.281742
8.2743 3.77875 -4.15415 0.827426 0.377874 -0.415425
9.20627 2.70321 -2.81733 0.920592 0.280314 -0.271909
8.72786 3.98588 -2.81733 0.872783 0.398588 -0.28174
3.77875 8.2743 -4.15415 0.377874 0.827426 -0.415425
2.70321 9.20627 -2.81733 0.280314 0.920592 -0.271909
3.98588 8.72786 -2.81733 0.398588 0.872783 -0.28174
0 9.59493 -2.81733 0 0.952503 -0.30453
1.3655 9.49727 -2.81733 0.136075 0.949792 -0.281742
-1.3655 9.49727 -2.81733 -0.136075 0.949792 -0.281742
-3.77875 8.2743 -4.15415 -0.377874 0.827426 -0.415425
-2.70321 9.20627 -2.81733 -0.280314 0.920592 -0.271909
-3.98588 8.72786 -2.81733 -0.398588 0.872783 -0.28174
-8.2743 3.77875 -4.15415 -0.827426 0.377874 -0.415425
-9.20627 2.70321 -2.81733 -0.920592 0.280314 -0.271909
-8.72786 3.98588 -2.81733 -0.872783 0.398588 -0.28174
-9.59493 0 -2.81733 -0.952503 0 -0.30453
-9.49727 1.3655 -2.81733 -0.949792 0.136075 -0.281742
-9.49727 -1.3655 -2.81733 -0.949792 -0.136075 -0.281742
-8.2743 -3.77875 -4.15415 -0.827426 -0.377874 -0.415425
-9.20627 -2.70321 -2.81733 -0.920592 -0.280314 -0.271909
-8.72786 -3.98588 -2.81733 -0.872783 -0.398588 -0.28174
-3.77875 -8.2743 -4.15415 -0.377874 -0.827426 -0.415425
-2.70321 -9.20627 -2.81733 -0.280314 -0.920592 -0.271909
-3.98588 -8.72786 -2.81733 -0.398588 -0.872783 -0.28174
0 -9.59493 -2.81733 -2.32356e-018 -0.952503 -0.30453
-1.3655 -9.49727 -2.81733 -0.136075 -0.949792 -0.281742
1.3655 -9.49727 -2.81733 0.136075 -0.949792 -0.281742
3.77875 -8.2743 -4.15415 0.377874 -0.827426 -0.415425
2.70321 -9.20627 -2.81733 0.280314 -0.920592 -0.271909
3.98588 -8.72786 -2.81733 0.398588 -0.872783 -0.28174
8.2743 -3.77875 -4.15415 0.827426 -0.377874 -0.415425
9.20627 -2.70321 -2.81733 0.920592 -0.280314 -0.271909
8.72786 -3.98588 -2.81733 0.872783 -0.398588 -0.28174
9.49727 -1.3655 -2.81733 0.949792 -0.136075 -0.281742
9.79747 1.40866 -1.42315 0.976116 0.164179 -0.142279
9.49727 2.78865 -1.42315 0.949726 0.278867 -0.142317
9.00373 4.11187 -1.42315 0.900373 0.411187 -0.142317
8.07177 5.18741 -2.81733 0.814706 0.512171 -0.27191
8.32691 5.35138 -1.42315 0.8265 0.548159 -0.128135
7.48057 6.48195 -1.42315 0.74528 0.64579 -0.165869
7.25137 6.28334 -2.81733 0.719854 0.623757 -0.304528
5.18741 8.07177 -2.81733 0.512171 0.814706 -0.27191
6.48195 7.48057 -1.42315 0.648378 0.747898 -0.14232
6.28334 7.25137 -2.81733 0.628694 0.724822 -0.281739
5.35138 8.32691 -1.42315 0.548159 0.8265 -0.128135
4.11187 9.00373 -1.42315 0.411187 0.900373 -0.142317
2.78865 9.49727 -1.42315 0.278867 0.949726 -0.142317
1.40866 9.79747 -1.42315 0.164179 0.976116 -0.142279
-1.40866 9.79747 -1.42315 -0.164179 0.976116 -0.142279
-2.78865 9.49727 -1.42315 -0.278867 0.949726 -0.142317
-4.11187 9.00373 -1.42315 -0.411187 0.900373 -0.142317
-5.18741 8.07177 -2.81733 -0.512171 0.814706 -0.27191
-5.35138 8.32691 -1.42315 -0.548159 0.8265 -0.128135
-6.48195 7.48057 -1.42315 -0.648378 0.747898 -0.14232
-6.28334 7.25137 -2.81733 -0.628694 0.724822 -0.281739
-8.07177 5.18741 -2.81733 -0.814706 0.512171 -0.27191
-7.48057 6.48195 -1.42315 -0.74528 0.64579 -0.165869
-7.25137 6.28334 -2.81733 -0.719854 0.623757 -0.304528
-8.32691 5.35138 -1.42315 -0.8265 0.548159 -0.128135
-9.00373 4.11187 -1.42315 -0.900373 0.411187 -0.142317
-9.49727 2.78865 -1.42315 -0.949726 0.278867 -0.142317
-9.79747 1.40866 -1.42315 -0.976116 0.164179 -0.142279
-9.79747 -1.40866 -1.42315 -0.976116 -0.164179 -0.142279
-9.49727 -2.78865 -1.42315 -0.949726 -0.278867 -0.142317
-9.00373 -4.11187 -1.42315 -0.900373 -0.411187 -0.142317
-8.07177 -5.18741 -2.81733 -0.814706 -0.512171 -0.27191
-8.32691 -5.35138 -1.42315 -0.8265 -0.548159 -0.128135
-7.48057 -6.48195 -1.42315 -0.74528 -0.64579 -0.165869
-7.25137 -6.28334 -2.81733 -0.719854 -0.623757 -0.304528
-5.18741 -8.07177 -2.81733 -0.512171 -0.814706 -0.27191
-6.48195 -7.48057 -1.42315 -0.648378 -0.747898 -0.14232
-6.28334 -7.25137 -2.81733 -0.628694 -0.724822 -0.281739
-5.35138 -8.32691 -1.42315 -0.548159 -0.8265 -0.128135
-4.11187 -9.00373 -1.42315 -0.411187 -0.900373 -0.142317
-2.78865 -9.49727 -1.42315 -0.278867 -0.949726 -0.142317
-1.40866 -9.79747 -1.42315 -0.164179 -0.976116 -0.142279
1.40866 -9.79747 -1.42315 0.164179 -0.976116 -0.142279
2.78865 -9.49727 -1.42315 0.278867 -0.949726 -0.142317
4.11187 -9.00373 -1.42315 0.411187 -0.900373 -0.142317
5.18741 -8.07177 -2.81733 0.512171 -0.814706 -0.27191
5.35138 -8.32691 -1.42315 0.548159 -0.8265 -0.128135
6.48195 -7.48057 -1.42315 0.648378 -0.747898 -0.14232
6.28334 -7.25137 -2.81733 0.628694 -0.724822 -0.281739
8.07177 -5.18741 -2.81733 0.814706 -0.512171 -0.27191
7.48057 -6.48195 -1.42315 0.74528 -0.64579 -0.165869
7.25137 -6.28334 -2.81733 0.719854 -0.623757 -0.304528
8.32691 -5.35138 -1.42315 0.8265 -0.548159 -0.128135
9.00373 -4.11187 -1.42315 0.900373 -0.411187 -0.142317
9.49727 -2.78865 -1.42315 0.949726 -0.278867 -0.142317
9.79747 -1.40866 -1.42315 0.976116 -0.164179 -0.142279
9.59493 2.81733 0 0.959492 0.281735 1.74357e-018
9.89822 1.42315 0 0.992932 0.118683 0
8.41254 5.40641 0 0.853901 0.520435 0
7.5575 6.54861 0 0.755749 0.654861 0
6.54861 7.5575 0 0.636663 0.771142 0
5.40641 8.41254 0 0.520435 0.853901 2.32411e-018
2.81733 9.59493 0 0.281735 0.959492 1.74357e-018
1.42315 9.89822 0 0.118683 0.992932 -2.32411e-018
-2.81733 9.59493 0 -0.281735 0.959492 1.74357e-018
-1.42315 9.89822 0 -0.118683 0.992932 0
-5.40641 8.41254 0 -0.520435 0.853901 0
-6.54861 7.5575 0 -0.636663 0.771142 -2.32411e-018
-7.5575 6.54861 0 -0.755749 0.654861 0
-8.41254 5.40641 0 -0.853901 0.520435 2.32411e-018
-9.59493 2.81733 0 -0.959492 0.281735 1.74357e-018
-9.89822 1.42315 0 -0.992932 0.118683 -2.32411e-018
-9.59493 -2.81733 0 -0.959492 -0.281735 1.74357e-018
-9.89822 -1.42315 0 -0.992932 -0.118683 -2.32411e-018
-8.41254 -5.40641 0 -0.853901 -0.520435 0
-7.5575 -6.54861 0 -0.755749 -0.654861 0
-6.54861 -7.5575 0 -0.636663 -0.771142 0
-5.40641 -8.41254 0 -0.520435 -0.853901 2.32411e-018
-2.81733 -9.59493 0 -0.281735 -0.959492 1.74357e-018
-1.42315 -9.89822 0 -0.118683 -0.992932 0
2.81733 -9.59493 0 0.281735 -0.959492 1.74357e-018
1.42315 -9.89822 0 0.118683 -0.992932 -2.32411e-018
5.40641 -8.41254 0 0.520435 -0.853901 0
6.54861 -7.5575 0 0.636663 -0.771142 -2.32411e-018
7.5575 -6.54861 0 0.755749 -0.654861 0
8.41254 -5.40641 0 0.853901 -0.520435 2.32411e-018
9.59493 -2.81733 0 0.959492 -0.281735 1.74357e-018
9.89822 -1.42315 0 0.992932 -0.118683 0
9.79747 1.40866 1.42315 0.976116 0.164179 0.142279
9.49727 2.78865 1.42315 0.949726 0.278867 0.142317
9.00373 4.11187 1.42315 0.900373 0.411187 0.142317
9.09632 4.15415 0 0.909632 0.415414 0
8.32691 5.35138 1.42315 0.8265 0.548159 0.128135
7.48057 6.48195 1.42315 0.74528 0.64579 0.165869
6.48195 7.48057 1.42315 0.648378 0.747898 0.14232
5.35138 8.32691 1.42315 0.548159 0.8265 0.128135
4.11187 9.00373 1.42315 0.411187 0.900373 0.142317
4.15415 9.09632 0 0.415414 0.909632 3.48715e-018
2.78865 9.49727 1.42315 0.278867 0.949726 0.142317
1.40866 9.79747 1.42315 0.164179 0.976116 0.142279
-1.40866 9.79747 1.42315 -0.164179 0.976116 0.142279
-2.78865 9.49727 1.42315 -0.278867 0.949726 0.142317
-4.11187 9.00373 1.42315 -0.411187 0.900373 0.142317
-4.15415 9.09632 0 -0.415414 0.909632 0
-5.35138 8.32691 1.42315 -0.548159 0.8265 0.128135
-6.48195 7.48057 1.42315 -0.648378 0.747898 0.14232
-7.48057 6.48195 1.42315 -0.74528 0.64579 0.165869
-8.32691 5.35138 1.42315 -0.8265 0.548159 0.128135
-9.00373 4.11187 1.42315 -0.900373 0.411187 0.142317
-9.09632 4.15415 0 -0.909632 0.415414 3.48715e-018
-9.49727 2.78865 1.42315 -0.949726 0.278867 0.142317
-9.79747 1.40866 1.42315 -0.976116 0.164179 0.142279
-9.79747 -1.40866 1.42315 -0.976116 -0.164179 0.142279
-9.49727 -2.78865 1.42315 -0.949726 -0.278867 0.142317
-9.00373 -4.11187 1.42315 -0.900373 -0.411187 0.142317
-9.09632 -4.15415 0 -0.909632 -0.415414 0
-8.32691 -5.35138 1.42315 -0.8265 -0.548159 0.128135
-7.48057 -6.48195 1.42315 -0.74528 -0.64579 0.165869
-6.48195 -7.48057 1.42315 -0.648378 -0.747898 0.14232
-5.35138 -8.32691 1.42315 -0.548159 -0.8265 0.128135
-4.11187 -9.00373 1.42315 -0.411187 -0.900373 0.142317
-4.15415 -9.09632 0 -0.415414 -0.909632 3.48715e-018
-2.78865 -9.49727 1.42315 -0.278867 -0.949726 0.142317
-1.40866 -9.79747 1.42315 -0.164179 -0.976116 0.142279
1.40866 -9.79747 1.42315 0.164179 -0.976116 0.142279
2.78865 -9.49727 1.42315 0.278867 -0.949726 0.142317
4.11187 -9.00373 1.42315 0.411187 -0.900373 0.142317
4.15415 -9.09632 0 0.415414 -0.909632 0
5.35138 -8.32691 1.42315 0.548159 -0.8265 0.128135
6.48195 -7.48057 1.42315 0.648378 -0.747898 0.14232
7.48057 -6.48195 1.42315 0.74528 -0.64579 0.165869
8.32691 -5.35138 1.42315 0.8265 -0.548159 0.128135
9.00373 -4.11187 1.42315 0.900373 -0.411187 0.142317
9.09632 -4.15415 0 0.909632 -0.415414 3.48715e-018
9.49727 -2.78865 1.42315 0.949726 -0.278867 0.142317
9.79747 -1.40866 1.42315 0.976116 -0.164179 0.142279
9.20627 2.70321 2.81733 0.920592 0.280314 0.271909
9.49727 1.3655 2.81733 0.949792 0.136075 0.281742
2.70321 9.20627 2.81733 0.280314 0.920592 0.271909
1.3655 9.49727 2.81733 0.136075 0.949792 0.281742
-2.70321 9.20627 2.81733 -0.280314 0.920592 0.271909
-1.3655 9.49727 2.81733 -0.136075 0.949792 0.281742
-9.20627 2.70321 2.81733 -0.920592 0.280314 0.271909
-9.49727 1.3655 2.81733 -0.949792 0.136075 0.281742
-9.20627 -2.70321 2.81733 -0.920592 -0.280314 0.271909
-9.49727 -1.3655 2.81733 -0.949792 -0.136075 0.281742
-2.70321 -9.20627 2.81733 -0.280314 -0.920592 0.271909
-1.3655 -9.49727 2.81733 -0.136075 -0.949792 0.281742
2.70321 -9.20627 2.81733 0.280314 -0.920592 0.271909
1.3655 -9.49727 2.81733 0.136075 -0.949792 0.281742
9.20627 -2.70321 2.81733 0.920592 -0.280314 0.271909
9.49727 -1.3655 2.81733 0.949792 -0.136075 0.281742
9.00373 1.29454 4.15415 0.897446 0.119338 0.424676
9.59493 0 2.81733 0.952503 -4.64713e-018 0.30453
8.2743 3.77875 4.15415 0.827426 0.377874 0.415425
8.72786 2.56273 4.15415 0.882098 0.245008 0.402336
8.72786 3.98588 2.81733 0.872783 0.398588 0.28174
8.07177 5.18741 2.81733 0.814706 0.512171 0.27191
7.25137 6.28334 2.81733 0.719854 0.623757 0.304528
6.28334 7.25137 2.81733 0.628694 0.724822 0.281739
5.18741 8.07177 2.81733 0.512171 0.814706 0.27191
3.98588 8.72786 2.81733 0.398588 0.872783 0.28174
2.56273 8.72786 4.15415 0.245008 0.882098 0.402336
3.77875 8.2743 4.15415 0.377874 0.827426 0.415425
0 9.59493 2.81733 -2.32356e-018 0.952503 0.30453
1.29454 9.00373 4.15415 0.119338 0.897446 0.424676
0 9.09632 4.15415 0 0.909628 0.415423
-1.29454 9.00373 4.15415 -0.119338 0.897446 0.424676
-3.77875 8.2743 4.15415 -0.377874 0.827426 0.415425
-2.56273 8.72786 4.15415 -0.245008 0.882098 0.402336
-3.98588 8.72786 2.81733 -0.398588 0.872783 0.28174
-5.18741 8.07177 2.81733 -0.512171 0.814706 0.27191
-6.28334 7.25137 2.81733 -0.628694 0.724822 0.281739
-7.25137 6.28334 2.81733 -0.719854 0.623757 0.304528
-8.07177 5.18741 2.81733 -0.814706 0.512171 0.27191
-8.72786 3.98588 2.81733 -0.872783 0.398588 0.28174
-8.72786 2.56273 4.15415 -0.882098 0.245008 0.402336
-8.2743 3.77875 4.15415 -0.827426 0.377874 0.415425
-9.59493 0 2.81733 -0.952503 -2.32356e-018 0.30453
-9.00373 1.29454 4.15415 -0.897446 0.119338 0.424676
-9.09632 0 4.15415 -0.909628 0 0.415423
-9.00373 -1.29454 4.15415 -0.897446 -0.119338 0.424676
-8.2743 -3.77875 4.15415 -0.827426 -0.377874 0.415425
-8.72786 -2.56273 4.15415 -0.882098 -0.245008 0.402336
-8.72786 -3.98588 2.81733 -0.872783 -0.398588 0.28174
-8.07177 -5.18741 2.81733 -0.814706 -0.512171 0.27191
-7.25137 -6.28334 2.81733 -0.719854 -0.623757 0.304528
-6.28334 -7.25137 2.81733 -0.628694 -0.724822 0.281739
-5.18741 -8.07177 2.81733 -0.512171 -0.814706 0.27191
-3.98588 -8.72786 2.81733 -0.398588 -0.872783 0.28174
-2.56273 -8.72786 4.15415 -0.245008 -0.882098 0.402336
-3.77875 -8.2743 4.15415 -0.377874 -0.827426 0.415425
0 -9.59493 2.81733 0 -0.952503 0.30453
-1.29454 -9.00373 4.15415 -0.119338 -0.897446 0.424676
0 -9.09632 4.15415 0 -0.909628 0.415423
1.29454 -9.00373 4.15415 0.119338 -0.897446 0.424676
3.77875 -8.2743 4.15415 0.377874 -0.827426 0.415425
2.56273 -8.72786 4.15415 0.245008 -0.882098 0.402336
3.98588 -8.72786 2.81733 0.398588 -0.872783 0.28174
5.18741 -8.07177 2.81733 0.512171 -0.814706 0.27191
6.28334 -7.25137 2.81733 0.628694 -0.724822 0.281739
7.25137 -6.28334 2.81733 0.719854 -0.623757 0.304528
8.07177 -5.18741 2.81733 0.814706 -0.512171 0.27191
8.72786 -3.98588 2.81733 0.872783 -0.398588 0.28174
9.09632 0 4.15415 0.909628 0 0.415423
9.00373 -1.29454 4.15415 0.897446 -0.119338 0.424676
8.2743 -3.77875 4.15415 0.827426 -0.377874 0.415425
8.72786 -2.56273 4.15415 0.882098 -0.245008 0.402336
8.41254 0 5.40641 0.841248 1.74229e-018 0.54065
8.32691 1.19723 5.40641 0.823258 0.129964 0.55259
8.07177 2.37009 5.40641 0.819306 0.240571 0.520445
6.87454 5.95682 4.15415 0.679773 0.589027 0.436984
7.07708 4.54816 5.40641 0.707856 0.464658 0.532008
7.65231 4.91784 4.15415 0.762817 0.506199 0.402335
6.35777 5.50904 5.40641 0.622305 0.554421 0.552588
5.50904 6.35777 5.40641 0.565374 0.633261 0.528519
5.95682 6.87454 4.15415 0.596213 0.686989 0.415424
4.54816 7.07708 5.40641 0.464658 0.707856 0.532008
4.91784 7.65231 4.15415 0.506199 0.762817 0.402335
2.37009 8.07177 5.40641 0.240571 0.819306 0.520445
1.19723 8.32691 5.40641 0.129964 0.823258 0.55259
0 8.41254 5.40641 1.74229e-018 0.841248 0.54065
-1.19723 8.32691 5.40641 -0.129964 0.823258 0.55259
-2.37009 8.07177 5.40641 -0.240571 0.819306 0.520445
-5.95682 6.87454 4.15415 -0.596213 0.686989 0.415424
-4.54816 7.07708 5.40641 -0.464658 0.707856 0.532008
-4.91784 7.65231 4.15415 -0.506199 0.762817 0.402335
-5.50904 6.35777 5.40641 -0.565374 0.633261 0.528519
-6.35777 5.50904 5.40641 -0.622305 0.554421 0.552588
-6.87454 5.95682 4.15415 -0.679773 0.589027 0.436984
-7.07708 4.54816 5.40641 -0.707856 0.464658 0.532008
-7.65231 4.91784 4.15415 -0.762817 0.506199 0.402335
-8.07177 2.37009 5.40641 -0.819306 0.240571 0.520445
-8.32691 1.19723 5.40641 -0.823258 0.129964 0.55259
-8.41254 0 5.40641 -0.841248 8.71145e-019 0.54065
-8.32691 -1.19723 5.40641 -0.823258 -0.129964 0.55259
-8.07177 -2.37009 5.40641 -0.819306 -0.240571 0.520445
-6.87454 -5.95682 4.15415 -0.679773 -0.589027 0.436984
-7.07708 -4.54816 5.40641 -0.707856 -0.464658 0.532008
-7.65231 -4.91784 4.15415 -0.762817 -0.506199 0.402335
-6.35777 -5.50904 5.40641 -0.622305 -0.554421 0.552588
-5.50904 -6.35777 5.40641 -0.565374 -0.633261 0.528519
-5.95682 -6.87454 4.15415 -0.596213 -0.686989 0.415424
-4.54816 -7.07708 5.40641 -0.464658 -0.707856 0.532008
-4.91784 -7.65231 4.15415 -0.506199 -0.762817 0.402335
-2.37009 -8.07177 5.40641 -0.240571 -0.819306 0.520445
-1.19723 -8.32691 5.40641 -0.129964 -0.823258 0.55259
0 -8.41254 5.40641 2.61344e-018 -0.841248 0.54065
1.19723 -8.32691 5.40641 0.129964 -0.823258 0.55259
2.37009 -8.07177 5.40641 0.240571 -0.819306 0.520445
5.95682 -6.87454 4.15415 0.596213 -0.686989 0.415424
4.54816 -7.07708 5.40641 0.464658 -0.707856 0.532008
4.91784 -7.65231 4.15415 0.506199 -0.762817 0.402335
5.50904 -6.35777 5.40641 0.565374 -0.633261 0.528519
6.35777 -5.50904 5.40641 0.622305 -0.554421 0.552588
6.87454 -5.95682 4.15415 0.679773 -0.589027 0.436984
7.07708 -4.54816 5.40641 0.707856 -0.464658 0.532008
7.65231 -4.91784 4.15415 0.762817 -0.506199 0.402335
8.32691 -1.19723 5.40641 0.823258 -0.129964 0.55259
8.07177 -2.37009 5.40641 0.819306 -0.240571 0.520445
7.65231 3.49469 5.40641 0.753288 0.344015 0.560545
6.35777 4.08589 6.54861 0.636372 0.407646 0.654871
6.87454 3.1395 6.54861 0.673054 0.307374 0.672696
3.49469 7.65231 5.40641 0.344015 0.753288 0.560545
4.08589 6.35777 6.54861 0.407646 0.636372 0.654871
3.1395 6.87454 6.54861 0.307374 0.673054 0.672696
-3.49469 7.65231 5.40641 -0.344015 0.753288 0.560545
-4.08589 6.35777 6.54861 -0.407646 0.636372 0.654871
-3.1395 6.87454 6.54861 -0.307374 0.673054 0.672696
-7.65231 3.49469 5.40641 -0.753288 0.344015 0.560545
-6.35777 4.08589 6.54861 -0.636372 0.407646 0.654871
-6.87454 3.1395 6.54861 -0.673054 0.307374 0.672696
-7.65231 -3.49469 5.40641 -0.753288 -0.344015 0.560545
-6.35777 -4.08589 6.54861 -0.636372 -0.407646 0.654871
-6.87454 -3.1395 6.54861 -0.673054 -0.307374 0.672696
-3.49469 -7.65231 5.40641 -0.344015 -0.753288 0.560545
-4.08589 -6.35777 6.54861 -0.407646 -0.636372 0.654871
-3.1395 -6.87454 6.54861 -0.307374 -0.673054 0.672696
3.49469 -7.65231 5.40641 0.344015 -0.753288 0.560545
4.08589 -6.35777 6.54861 0.407646 -0.636372 0.654871
3.1395 -6.87454 6.54861 0.307374 -0.673054 0.672696
7.65231 -3.49469 5.40641 0.753288 -0.344015 0.560545
6.35777 -4.08589 6.54861 0.636372 -0.407646 0.654871
6.87454 -3.1395 6.54861 0.673054 -0.307374 0.672696
4.94911 4.28842 7.5575 0.493771 0.418273 0.76239
5.50904 3.54044 7.5575 0.565385 0.3513 0.746276
5.71158 4.94911 6.54861 0.57188 0.494062 0.654871
4.28842 4.94911 7.5575 0.429221 0.504724 0.749015
4.94911 5.71158 6.54861 0.504986 0.582786 0.636671
3.54044 5.50904 7.5575 0.3513 0.565385 0.746276
-4.28842 4.94911 7.5575 -0.429221 0.504724 0.749015
-3.54044 5.50904 7.5575 -0.3513 0.565385 0.746276
-4.94911 5.71158 6.54861 -0.504986 0.582786 0.636671
-4.94911 4.28842 7.5575 -0.493771 0.418273 0.76239
-5.71158 4.94911 6.54861 -0.57188 0.494062 0.654871
-5.50904 3.54044 7.5575 -0.565385 0.3513 0.746276
-4.94911 -4.28842 7.5575 -0.493771 -0.418273 0.76239
-5.50904 -3.54044 7.5575 -0.565385 -0.3513 0.746276
-5.71158 -4.94911 6.54861 -0.57188 -0.494062 0.654871
-4.28842 -4.94911 7.5575 -0.429221 -0.504724 0.749015
-4.94911 -5.71158 6.54861 -0.504986 -0.582786 0.636671
-3.54044 -5.50904 7.5575 -0.3513 -0.565385 0.746276
4.28842 -4.94911 7.5575 0.429221 -0.504724 0.749015
3.54044 -5.50904 7.5575 0.3513 -0.565385 0.746276
4.94911 -5.71158 6.54861 0.504986 -0.582786 0.636671
4.94911 -4.28842 7.5575 0.493771 -0.418273 0.76239
5.71158 -4.94911 6.54861 0.57188 -0.494062 0.654871
5.50904 -3.54044 7.5575 0.565385 -0.3513 0.746276
4.54816 2.92292 8.41254 0.464662 0.292785 0.835683
5.95682 2.72039 7.5575 0.579121 0.264475 0.77115
4.08589 3.54044 8.41254 0.393313 0.340807 0.853906
2.92292 4.54816 8.41254 0.292785 0.464662 0.835683
3.54044 4.08589 8.41254 0.355119 0.407643 0.84126
2.72039 5.95682 7.5575 0.264475 0.579121 0.77115
-2.92292 4.54816 8.41254 -0.292785 0.464662 0.835683
-2.72039 5.95682 7.5575 -0.264475 0.579121 0.77115
-3.54044 4.08589 8.41254 -0.355119 0.407643 0.84126
-4.54816 2.92292 8.41254 -0.464662 0.292785 0.835683
-4.08589 3.54044 8.41254 -0.393313 0.340807 0.853906
-5.95682 2.72039 7.5575 -0.579121 0.264475 0.77115
-4.54816 -2.92292 8.41254 -0.464662 -0.292785 0.835683
-5.95682 -2.72039 7.5575 -0.579121 -0.264475 0.77115
-4.08589 -3.54044 8.41254 -0.393313 -0.340807 0.853906
-2.92292 -4.54816 8.41254 -0.292785 -0.464662 0.835683
-3.54044 -4.08589 8.41254 -0.355119 -0.407643 0.84126
-2.72039 -5.95682 7.5575 -0.264475 -0.579121 0.77115
2.92292 -4.54816 8.41254 0.292785 -0.464662 0.835683
2.72039 -5.95682 7.5575 0.264475 -0.579121 0.77115
3.54044 -4.08589 8.41254 0.355119 -0.407643 0.84126
4.54816 -2.92292 8.41254 0.464662 -0.292785 0.835683
4.08589 -3.54044 8.41254 0.393313 -0.340807 0.853906
5.95682 -2.72039 7.5575 0.579121 -0.264475 0.77115
4.91784 2.2459 8.41254 0.483623 0.213308 0.848886
3.77875 1.7257 9.09632 0.367349 0.17316 0.913822
3.49469 2.2459 9.09632 0.356647 0.237372 0.90358
2.2459 4.91784 8.41254 0.213308 0.483623 0.848886
1.7257 3.77875 9.09632 0.17316 0.367349 0.913822
2.2459 3.49469 9.09632 0.237372 0.356647 0.90358
-2.2459 4.91784 8.41254 -0.213308 0.483623 0.848886
-1.7257 3.77875 9.09632 -0.17316 0.367349 0.913822
-2.2459 3.49469 9.09632 -0.237372 0.356647 0.90358
-3.77875 1.7257 9.09632 -0.367349 0.17316 0.913822
-3.49469 2.2459 9.09632 -0.356647 0.237372 0.90358
-4.91784 2.2459 8.41254 -0.483623 0.213308 0.848886
-4.91784 -2.2459 8.41254 -0.483623 -0.213308 0.848886
-3.77875 -1.7257 9.09632 -0.367349 -0.17316 0.913822
-3.49469 -2.2459 9.09632 -0.356647 -0.237372 0.90358
-2.2459 -4.91784 8.41254 -0.213308 -0.483623 0.848886
-1.7257 -3.77875 9.09632 -0.17316 -0.367349 0.913822
-2.2459 -3.49469 9.09632 -0.237372 -0.356647 0.90358
2.2459 -4.91784 8.41254 0.213308 -0.483623 0.848886
1.7257 -3.77875 9.09632 0.17316 -0.367349 0.913822
2.2459 -3.49469 9.09632 0.237372 -0.356647 0.90358
3.77875 -1.7257 9.09632 0.367349 -0.17316 0.913822
3.49469 -2.2459 9.09632 0.356647 -0.237372 0.90358
4.91784 -2.2459 8.41254 0.483623 -0.213308 0.848886
4.11187 0.591198 9.09632 0.389602 0.0560156 0.919278
2.81733 0 9.59493 0.281727 1.0872e-018 0.959495
4.15415 0 9.09632 0.436968 0 0.899477
2.78865 0.400948 9.59493 0.27886 0.0400935 0.959495
2.70321 0.793732 9.59493 0.28032 0.0800395 0.956564
3.98588 1.17036 9.09632 0.419268 0.123109 0.899477
0.591198 4.11187 9.09632 0.0560156 0.389602 0.919278
0.793732 2.70321 9.59493 0.0800395 0.28032 0.956564
1.17036 3.98588 9.09632 0.123109 0.419268 0.899477
0.400948 2.78865 9.59493 0.0400935 0.27886 0.959495
0 2.81733 9.59493 -1.30464e-018 0.281727 0.959495
0 4.15415 9.09632 1.15968e-018 0.436968 0.899477
-0.591198 4.11187 9.09632 -0.0560156 0.389602 0.919278
-0.400948 2.78865 9.59493 -0.0400935 0.27886 0.959495
-0.793732 2.70321 9.59493 -0.0800395 0.28032 0.956564
-1.17036 3.98588 9.09632 -0.123109 0.419268 0.899477
-4.11187 0.591198 9.09632 -0.389602 0.0560156 0.919278
-2.70321 0.793732 9.59493 -0.28032 0.0800395 0.956564
-3.98588 1.17036 9.09632 -0.419268 0.123109 0.899477
-2.78865 0.400948 9.59493 -0.27886 0.0400935 0.959495
-2.81733 0 9.59493 -0.281727 -4.34882e-019 0.959495
-4.15415 0 9.09632 -0.436968 0 0.899477
-4.11187 -0.591198 9.09632 -0.389602 -0.0560156 0.919278
-2.78865 -0.400948 9.59493 -0.27886 -0.0400935 0.959495
-2.70321 -0.793732 9.59493 -0.28032 -0.0800395 0.956564
-3.98588 -1.17036 9.09632 -0.419268 -0.123109 0.899477
-0.591198 -4.11187 9.09632 -0.0560156 -0.389602 0.919278
-0.793732 -2.70321 9.59493 -0.0800395 -0.28032 0.956564
-1.17036 -3.98588 9.09632 -0.123109 -0.419268 0.899477
-0.400948 -2.78865 9.59493 -0.0400935 -0.27886 0.959495
0 -2.81733 9.59493 6.52322e-019 -0.281727 0.959495
0 -4.15415 9.09632 -1.15968e-018 -0.436968 0.899477
0.591198 -4.11187 9.09632 0.0560156 -0.389602 0.919278
0.400948 -2.78865 9.59493 0.0400935 -0.27886 0.959495
0.793732 -2.70321 9.59493 0.0800395 -0.28032 0.956564
1.17036 -3.98588 9.09632 0.123109 -0.419268 0.899477
4.11187 -0.591198 9.09632 0.389602 -0.0560156 0.919278
2.78865 -0.400948 9.59493 0.27886 -0.0400935 0.959495
2.70321 -0.793732 9.59493 0.28032 -0.0800395 0.956564
3.98588 -1.17036 9.09632 0.419268 -0.123109 0.899477
-7.25137 -2.12919 -6.54861 -0.733532 -0.207834 -0.647098
-7.25137 -2.12919 6.54861 -0.733532 -0.207834 0.647098
-6.48195 -0.931965 -7.5575 -0.654909 -0.100366 -0.749014
-7.48057 -1.07554 -6.54861 -0.758827 -0.0975079 -0.643952
-7.5575 0 -6.54861 -0.73992 0 -0.672695
-9.89822 0 -1.42315 -0.989821 1.74349e-018 -0.142319
-10 0 0 -1 0 0
-9.89822 0 1.42315 -0.989821 1.74349e-018 0.142319
-7.48057 -1.07554 6.54861 -0.758827 -0.0975079 0.643952
-7.5575 0 6.54861 -0.73992 -1.16073e-018 0.672695
-6.48195 -0.931965 7.5575 -0.654909 -0.100366 0.749014
-6.48195 0.931965 -7.5575 -0.654909 0.100366 -0.749014
-7.48057 1.07554 -6.54861 -0.758827 0.0975079 -0.643952
-6.54861 0 -7.5575 -0.636654 0 -0.77115
-7.25137 2.12919 -6.54861 -0.733532 0.207834 -0.647098
-7.48057 1.07554 6.54861 -0.758827 0.0975079 0.643952
-7.25137 2.12919 6.54861 -0.733532 0.207834 0.647098
-6.48195 0.931965 7.5575 -0.654909 0.100366 0.749014
-6.54861 0 7.5575 -0.636654 0 0.77115
7.25137 -2.12919 -6.54861 0.733532 -0.207834 -0.647098
7.25137 -2.12919 6.54861 0.733532 -0.207834 0.647098
6.54861 0 -7.5575 0.636654 1.16031e-018 -0.77115
7.5575 0 -6.54861 0.73992 0 -0.672695
6.48195 -0.931965 -7.5575 0.654909 -0.100366 -0.749014
7.48057 -1.07554 -6.54861 0.758827 -0.0975079 -0.643952
10 0 0 1 0 0
9.89822 0 -1.42315 0.989821 -1.74349e-018 -0.142319
9.89822 0 1.42315 0.989821 0 0.142319
7.48057 -1.07554 6.54861 0.758827 -0.0975079 0.643952
7.5575 0 6.54861 0.73992 1.16073e-018 0.672695
6.54861 0 7.5575 0.636654 0 0.77115
6.48195 -0.931965 7.5575 0.654909 -0.100366 0.749014
6.48195 0.931965 -7.5575 0.654909 0.100366 -0.749014
7.48057 1.07554 -6.54861 0.758827 0.0975079 -0.643952
7.25137 2.12919 -6.54861 0.733532 0.207834 -0.647098
7.48057 1.07554 6.54861 0.758827 0.0975079 0.643952
7.25137 2.12919 6.54861 0.733532 0.207834 0.647098
6.48195 0.931965 7.5575 0.654909 0.100366 0.749014
-2.12919 -7.25137 -6.54861 -0.207834 -0.733532 -0.647098
-2.12919 -7.25137 6.54861 -0.207834 -0.733532 0.647098
-0.931965 -6.48195 -7.5575 -0.100366 -0.654909 -0.749014
0 -7.5575 -6.54861 -1.16073e-018 -0.73992 -0.672695
-1.07554 -7.48057 -6.54861 -0.0975079 -0.758827 -0.643952
0 -9.89822 -1.42315 -1.74349e-018 -0.989821 -0.142319
0 -10 0 0 -1 0
0 -9.89822 1.42315 -1.74349e-018 -0.989821 0.142319
-1.07554 -7.48057 6.54861 -0.0975079 -0.758827 0.643952
0 -7.5575 6.54861 0 -0.73992 0.672695
-0.931965 -6.48195 7.5575 -0.100366 -0.654909 0.749014
0.931965 -6.48195 -7.5575 0.100366 -0.654909 -0.749014
1.07554 -7.48057 -6.54861 0.0975079 -0.758827 -0.643952
0 -6.54861 -7.5575 -1.16031e-018 -0.636654 -0.77115
2.12919 -7.25137 -6.54861 0.207834 -0.733532 -0.647098
1.07554 -7.48057 6.54861 0.0975079 -0.758827 0.643952
2.12919 -7.25137 6.54861 0.207834 -0.733532 0.647098
0.931965 -6.48195 7.5575 0.100366 -0.654909 0.749014
0 -6.54861 7.5575 1.16031e-018 -0.636654 0.77115
-2.12919 7.25137 -6.54861 -0.207834 0.733532 -0.647098
-2.12919 7.25137 6.54861 -0.207834 0.733532 0.647098
-0.931965 6.48195 -7.5575 -0.100366 0.654909 -0.749014
-1.07554 7.48057 -6.54861 -0.0975079 0.758827 -0.643952
0 7.5575 -6.54861 1.16073e-018 0.73992 -0.672695
0 6.54861 -7.5575 0 0.636654 -0.77115
0 9.89822 -1.42315 1.74349e-018 0.989821 -0.142319
0 10 0 0 1 0
0 9.89822 1.42315 1.74349e-018 0.989821 0.142319
-1.07554 7.48057 6.54861 -0.0975079 0.758827 0.643952
0 7.5575 6.54861 0 0.73992 0.672695
-0.931965 6.48195 7.5575 -0.100366 0.654909 0.749014
0 6.54861 7.5575 1.16031e-018 0.636654 0.77115
0.931965 6.48195 -7.5575 0.100366 0.654909 -0.749014
1.07554 7.48057 -6.54861 0.0975079 0.758827 -0.643952
2.12919 7.25137 -6.54861 0.207834 0.733532 -0.647098
1.07554 7.48057 6.54861 0.0975079 0.758827 0.643952
2.12919 7.25137 6.54861 0.207834 0.733532 0.647098
0.931965 6.48195 7.5575 0.100366 0.654909 0.749014
-6.28334 -1.84495 -7.5575 -0.635743 -0.197237 -0.746276
-6.28334 1.84495 -7.5575 -0.635743 0.197237 -0.746276
-5.35138 -0.769413 -8.41254 -0.527455 -0.0696372 -0.846724
-5.40641 0 -8.41254 -0.540629 -1.74046e-018 -0.841261
-5.18741 -1.52316 -8.41254 -0.537823 -0.15792 -0.828135
-5.18741 1.52316 -8.41254 -0.537823 0.15792 -0.828135
-5.35138 0.769413 -8.41254 -0.527455 0.0696372 -0.846724
-1.84495 -6.28334 -7.5575 -0.197237 -0.635743 -0.746276
-2.72039 -3.1395 -9.09632 -0.273203 -0.312927 -0.909635
-3.1395 -2.72039 -9.09632 -0.297469 -0.257758 -0.919278
-1.84495 -2.12919 -9.59493 -0.18573 -0.211842 -0.959493
-2.12919 -1.84495 -9.59493 -0.195571 -0.169467 -0.965936
-2.56273 -1.17036 -9.59493 -0.235395 -0.107501 -0.965936
-2.37009 -1.52316 -9.59493 -0.256174 -0.164635 -0.952507
-2.37009 1.52316 -9.59493 -0.256174 0.164635 -0.952507
-3.1395 2.72039 -9.09632 -0.297469 0.257758 -0.919278
-2.12919 1.84495 -9.59493 -0.195571 0.169467 -0.965936
-2.56273 1.17036 -9.59493 -0.235395 0.107501 -0.965936
-2.72039 3.1395 -9.09632 -0.273203 0.312927 -0.909635
-1.84495 2.12919 -9.59493 -0.18573 0.211842 -0.959493
-1.84495 6.28334 -7.5575 -0.197237 0.635743 -0.746276
0 -5.40641 -8.41254 0 -0.540629 -0.841261
-0.769413 -5.35138 -8.41254 -0.0696372 -0.527455 -0.846724
-1.52316 -5.18741 -8.41254 -0.15792 -0.537823 -0.828135
-1.52316 -2.37009 -9.59493 -0.164635 -0.256174 -0.952507
-1.17036 -2.56273 -9.59493 -0.107501 -0.235395 -0.965936
-1.40866 -0.202534 -9.89822 -0.164175 -0.0236052 -0.986149
-1.42315 0 -9.89822 -0.142311 -2.17408e-019 -0.989822
0 0 -10 1.10675e-018 1.26486e-018 -1
-1.3655 -0.400948 -9.89822 -0.149257 -0.0470025 -0.987681
-1.29454 -0.591198 -9.89822 -0.129451 -0.0591175 -0.989822
-1.19723 -0.769413 -9.89822 -0.139532 -0.0896732 -0.986149
-1.07554 -0.931965 -9.89822 -0.107551 -0.0931952 -0.989822
-0.931965 -1.07554 -9.89822 -0.10476 -0.116244 -0.98768
-0.769413 -1.19723 -9.89822 -0.0896732 -0.139532 -0.986149
-0.591198 -1.29454 -9.89822 -0.0591175 -0.129451 -0.989822
-0.400948 -1.3655 -9.89822 -0.0470025 -0.149257 -0.987681
-0.202534 -1.40866 -9.89822 -0.0236052 -0.164175 -0.986149
0 -1.42315 -9.89822 -4.34817e-019 -0.142311 -0.989822
-0.202534 1.40866 -9.89822 -0.0236052 0.164175 -0.986149
0 1.42315 -9.89822 -2.17408e-019 0.142311 -0.989822
-0.400948 1.3655 -9.89822 -0.0470025 0.149257 -0.987681
-1.17036 2.56273 -9.59493 -0.107501 0.235395 -0.965936
-0.591198 1.29454 -9.89822 -0.0591175 0.129451 -0.989822
-0.769413 1.19723 -9.89822 -0.0896732 0.139532 -0.986149
-1.52316 2.37009 -9.59493 -0.164635 0.256174 -0.952507
-0.931965 1.07554 -9.89822 -0.10476 0.116244 -0.98768
-1.07554 0.931965 -9.89822 -0.107551 0.0931952 -0.989822
-1.19723 0.769413 -9.89822 -0.139532 0.0896732 -0.986149
-1.29454 0.591198 -9.89822 -0.129451 0.0591175 -0.989822
-1.3655 0.400948 -9.89822 -0.149257 0.0470025 -0.987681
-1.40866 0.202534 -9.89822 -0.164175 0.0236052 -0.986149
-0.769413 5.35138 -8.41254 -0.0696372 0.527455 -0.846724
-1.52316 5.18741 -8.41254 -0.15792 0.537823 -0.828135
0 5.40641 -8.41254 -1.74046e-018 0.540629 -0.841261
1.84495 -6.28334 -7.5575 0.197237 -0.635743 -0.746276
1.52316 -5.18741 -8.41254 0.15792 -0.537823 -0.828135
0.769413 -5.35138 -8.41254 0.0696372 -0.527455 -0.846724
1.17036 -2.56273 -9.59493 0.107501 -0.235395 -0.965936
1.52316 -2.37009 -9.59493 0.164635 -0.256174 -0.952507
1.84495 -2.12919 -9.59493 0.18573 -0.211842 -0.959493
2.72039 -3.1395 -9.09632 0.273203 -0.312927 -0.909635
0.202534 -1.40866 -9.89822 0.0236052 -0.164175 -0.986149
0.400948 -1.3655 -9.89822 0.0470025 -0.149257 -0.987681
0.591198 -1.29454 -9.89822 0.0591175 -0.129451 -0.989822
0.769413 -1.19723 -9.89822 0.0896732 -0.139532 -0.986149
0.931965 -1.07554 -9.89822 0.10476 -0.116244 -0.98768
2.12919 -1.84495 -9.59493 0.195571 -0.169467 -0.965936
1.07554 -0.931965 -9.89822 0.107551 -0.0931952 -0.989822
1.19723 -0.769413 -9.89822 0.139532 -0.0896732 -0.986149
2.37009 -1.52316 -9.59493 0.256174 -0.164635 -0.952507
2.56273 -1.17036 -9.59493 0.235395 -0.107501 -0.965936
1.29454 -0.591198 -9.89822 0.129451 -0.0591175 -0.989822
1.3655 -0.400948 -9.89822 0.149257 -0.0470025 -0.987681
1.40866 -0.202534 -9.89822 0.164175 -0.0236052 -0.986149
1.42315 0 -9.89822 0.142311 0 -0.989822
0.202534 1.40866 -9.89822 0.0236052 0.164175 -0.986149
0.400948 1.3655 -9.89822 0.0470025 0.149257 -0.987681
1.17036 2.56273 -9.59493 0.107501 0.235395 -0.965936
0.591198 1.29454 -9.89822 0.0591175 0.129451 -0.989822
0.769413 1.19723 -9.89822 0.0896732 0.139532 -0.986149
1.52316 2.37009 -9.59493 0.164635 0.256174 -0.952507
1.84495 2.12919 -9.59493 0.18573 0.211842 -0.959493
1.40866 0.202534 -9.89822 0.164175 0.0236052 -0.986149
1.3655 0.400948 -9.89822 0.149257 0.0470025 -0.987681
1.29454 0.591198 -9.89822 0.129451 0.0591175 -0.989822
2.56273 1.17036 -9.59493 0.235395 0.107501 -0.965936
1.19723 0.769413 -9.89822 0.139532 0.0896732 -0.986149
1.07554 0.931965 -9.89822 0.107551 0.0931952 -0.989822
2.12919 1.84495 -9.59493 0.195571 0.169467 -0.965936
2.37009 1.52316 -9.59493 0.256174 0.164635 -0.952507
0.931965 1.07554 -9.89822 0.10476 0.116244 -0.98768
2.72039 3.1395 -9.09632 0.273203 0.312927 -0.909635
1.52316 5.18741 -8.41254 0.15792 0.537823 -0.828135
0.769413 5.35138 -8.41254 0.0696372 0.527455 -0.846724
1.84495 6.28334 -7.5575 0.197237 0.635743 -0.746276
3.1395 -2.72039 -9.09632 0.297469 -0.257758 -0.919278
5.35138 -0.769413 -8.41254 0.527455 -0.0696372 -0.846724
5.18741 -1.52316 -8.41254 0.537823 -0.15792 -0.828135
3.1395 2.72039 -9.09632 0.297469 0.257758 -0.919278
5.18741 1.52316 -8.41254 0.537823 0.15792 -0.828135
5.35138 0.769413 -8.41254 0.527455 0.0696372 -0.846724
5.40641 0 -8.41254 0.540629 0 -0.841261
6.28334 -1.84495 -7.5575 0.635743 -0.197237 -0.746276
6.28334 1.84495 -7.5575 0.635743 0.197237 -0.746276
-6.28334 -1.84495 7.5575 -0.635743 -0.197237 0.746276
-6.28334 1.84495 7.5575 -0.635743 0.197237 0.746276
-5.35138 -0.769413 8.41254 -0.527455 -0.0696372 0.846724
-5.40641 0 8.41254 -0.540629 -1.74046e-018 0.841261
-5.18741 -1.52316 8.41254 -0.537823 -0.15792 0.828135
-5.18741 1.52316 8.41254 -0.537823 0.15792 0.828135
-5.35138 0.769413 8.41254 -0.527455 0.0696372 0.846724
-1.84495 -6.28334 7.5575 -0.197237 -0.635743 0.746276
-2.72039 -3.1395 9.09632 -0.273203 -0.312927 0.909635
-3.1395 -2.72039 9.09632 -0.297469 -0.257758 0.919278
-1.84495 -2.12919 9.59493 -0.18573 -0.211842 0.959493
-2.12919 -1.84495 9.59493 -0.195571 -0.169467 0.965936
-2.37009 -1.52316 9.59493 -0.256174 -0.164635 0.952507
-2.56273 -1.17036 9.59493 -0.235395 -0.107501 0.965936
-2.37009 1.52316 9.59493 -0.256174 0.164635 0.952507
-3.1395 2.72039 9.09632 -0.297469 0.257758 0.919278
-2.12919 1.84495 9.59493 -0.195571 0.169467 0.965936
-2.56273 1.17036 9.59493 -0.235395 0.107501 0.965936
-2.72039 3.1395 9.09632 -0.273203 0.312927 0.909635
-1.84495 2.12919 9.59493 -0.18573 0.211842 0.959493
-1.84495 6.28334 7.5575 -0.197237 0.635743 0.746276
-1.52316 -5.18741 8.41254 -0.15792 -0.537823 0.828135
-0.769413 -5.35138 8.41254 -0.0696372 -0.527455 0.846724
0 -5.40641 8.41254 0 -0.540629 0.841261
-1.52316 -2.37009 9.59493 -0.164635 -0.256174 0.952507
-1.17036 -2.56273 9.59493 -0.107501 -0.235395 0.965936
0 -1.42315 9.89822 0 -0.142311 0.989822
0 0 10 -2.03563e-018 -1.58107e-018 1
-0.202534 -1.40866 9.89822 -0.0236052 -0.164175 0.986149
-0.400948 -1.3655 9.89822 -0.0470025 -0.149257 0.987681
-0.591198 -1.29454 9.89822 -0.0591175 -0.129451 0.989822
-0.769413 -1.19723 9.89822 -0.0896732 -0.139532 0.986149
-0.931965 -1.07554 9.89822 -0.10476 -0.116244 0.98768
-1.07554 -0.931965 9.89822 -0.107551 -0.0931952 0.989822
-1.19723 -0.769413 9.89822 -0.139532 -0.0896732 0.986149
-1.29454 -0.591198 9.89822 -0.129451 -0.0591175 0.989822
-1.3655 -0.400948 9.89822 -0.149257 -0.0470025 0.987681
-1.40866 -0.202534 9.89822 -0.164175 -0.0236052 0.986149
-1.42315 0 9.89822 -0.142311 -4.34817e-019 0.989822
-1.40866 0.202534 9.89822 -0.164175 0.0236052 0.986149
-1.3655 0.400948 9.89822 -0.149257 0.0470025 0.987681
-1.29454 0.591198 9.89822 -0.129451 0.0591175 0.989822
-1.19723 0.769413 9.89822 -0.139532 0.0896732 0.986149
-1.07554 0.931965 9.89822 -0.107551 0.0931952 0.989822
-0.931965 1.07554 9.89822 -0.10476 0.116244 0.98768
-0.769413 1.19723 9.89822 -0.0896732 0.139532 0.986149
-0.591198 1.29454 9.89822 -0.0591175 0.129451 0.989822
-0.400948 1.3655 9.89822 -0.0470025 0.149257 0.987681
-0.202534 1.40866 9.89822 -0.0236052 0.164175 0.986149
0 1.42315 9.89822 -4.34817e-019 0.142311 0.989822
-1.17036 2.56273 9.59493 -0.107501 0.235395 0.965936
-1.52316 2.37009 9.59493 -0.164635 0.256174 0.952507
-1.52316 5.18741 8.41254 -0.15792 0.537823 0.828135
-0.769413 5.35138 8.41254 -0.0696372 0.527455 0.846724
0 5.40641 8.41254 0 0.540629 0.841261
1.84495 -6.28334 7.5575 0.197237 -0.635743 0.746276
0.769413 -5.35138 8.41254 0.0696372 -0.527455 0.846724
1.52316 -5.18741 8.41254 0.15792 -0.537823 0.828135
1.17036 -2.56273 9.59493 0.107501 -0.235395 0.965936
1.52316 -2.37009 9.59493 0.164635 -0.256174 0.952507
2.72039 -3.1395 9.09632 0.273203 -0.312927 0.909635
1.84495 -2.12919 9.59493 0.18573 -0.211842 0.959493
1.42315 0 9.89822 0.142311 -2.17408e-019 0.989822
1.40866 -0.202534 9.89822 0.164175 -0.0236052 0.986149
1.3655 -0.400948 9.89822 0.149257 -0.0470025 0.987681
1.29454 -0.591198 9.89822 0.129451 -0.0591175 0.989822
1.19723 -0.769413 9.89822 0.139532 -0.0896732 0.986149
1.07554 -0.931965 9.89822 0.107551 -0.0931952 0.989822
0.931965 -1.07554 9.89822 0.10476 -0.116244 0.98768
0.769413 -1.19723 9.89822 0.0896732 -0.139532 0.986149
0.591198 -1.29454 9.89822 0.0591175 -0.129451 0.989822
0.400948 -1.3655 9.89822 0.0470025 -0.149257 0.987681
0.202534 -1.40866 9.89822 0.0236052 -0.164175 0.986149
2.56273 -1.17036 9.59493 0.235395 -0.107501 0.965936
2.37009 -1.52316 9.59493 0.256174 -0.164635 0.952507
2.12919 -1.84495 9.59493 0.195571 -0.169467 0.965936
1.40866 0.202534 9.89822 0.164175 0.0236052 0.986149
1.3655 0.400948 9.89822 0.149257 0.0470025 0.987681
2.56273 1.17036 9.59493 0.235395 0.107501 0.965936
1.29454 0.591198 9.89822 0.129451 0.0591175 0.989822
1.19723 0.769413 9.89822 0.139532 0.0896732 0.986149
2.37009 1.52316 9.59493 0.256174 0.164635 0.952507
2.12919 1.84495 9.59493 0.195571 0.169467 0.965936
1.07554 0.931965 9.89822 0.107551 0.0931952 0.989822
0.931965 1.07554 9.89822 0.10476 0.116244 0.98768
1.84495 2.12919 9.59493 0.18573 0.211842 0.959493
1.52316 2.37009 9.59493 0.164635 0.256174 0.952507
0.769413 1.19723 9.89822 0.0896732 0.139532 0.986149
0.591198 1.29454 9.89822 0.0591175 0.129451 0.989822
1.17036 2.56273 9.59493 0.107501 0.235395 0.965936
0.400948 1.3655 9.89822 0.0470025 0.149257 0.987681
0.202534 1.40866 9.89822 0.0236052 0.164175 0.986149
2.72039 3.1395 9.09632 0.273203 0.312927 0.909635
1.52316 5.18741 8.41254 0.15792 0.537823 0.828135
0.769413 5.35138 8.41254 0.0696372 0.527455 0.846724
1.84495 6.28334 7.5575 0.197237 0.635743 0.746276
3.1395 -2.72039 9.09632 0.297469 -0.257758 0.919278
5.18741 -1.52316 8.41254 0.537823 -0.15792 0.828135
5.35138 -0.769413 8.41254 0.527455 -0.0696372 0.846724
3.1395 2.72039 9.09632 0.297469 0.257758 0.919278
5.18741 1.52316 8.41254 0.537823 0.15792 0.828135
5.35138 0.769413 8.41254 0.527455 0.0696372 0.846724
5.40641 0 8.41254 0.540629 -1.74046e-018 0.841261
6.28334 -1.84495 7.5575 0.635743 -0.197237 0.746276
