-0.154660 -0.378934 -0.647436 -0.489866 0.867229 -0.089139 
-0.489362 -0.546928 -0.440337 -0.581419 0.792012 -0.186195 
0.071874 0.057322 0.435791 -0.532729 0.739120 0.412191 
-0.274627 -0.268733 -0.240623 -0.641396 0.680154 -0.354967 
-0.551743 -0.510704 -0.924586 -0.272645 0.916102 0.293976 
-0.496719 -0.505298 -0.889616 -0.301159 0.916661 0.262745 
0.397374 -0.002135 -0.492066 -0.445884 0.801871 -0.397732 
-0.170727 0.043602 0.129925 -0.474047 0.797390 0.373429 
0.313723 0.395503 0.080201 -0.650769 0.741613 0.162821 
0.304138 -0.143924 -0.772493 -0.482155 0.865419 -0.136298 
0.533166 0.019274 -0.612839 -0.453246 0.827305 -0.331865 
0.356572 -0.074829 0.932969 -0.511887 0.563405 0.648496 
-0.202882 -0.049142 0.280117 -0.410961 0.809943 0.418454 
-0.269726 -0.229228 -0.198499 -0.645868 0.668307 -0.369080 
0.604886 0.276305 -0.216753 -0.304412 0.759012 -0.575529 
-0.139798 0.071867 0.091851 -0.531828 0.785931 0.315390 
-0.051141 -0.319065 -0.645969 -0.508869 0.836455 -0.203459 
-0.488719 -0.252311 0.152946 -0.785065 0.552232 -0.280557 
-0.114224 -0.069518 -0.191916 -0.568853 0.684731 -0.455577 
0.535843 0.438928 -0.013797 -0.175883 0.739240 -0.650069 
-0.644857 -0.560117 -0.852102 -0.272003 0.916072 0.294663 
-0.553147 -0.587338 -0.386183 -0.587632 0.785292 -0.194948 
0.019389 -0.090595 0.612715 -0.476709 0.726788 0.494498 
0.313594 -0.040743 0.871601 -0.515720 0.579524 0.631019 
-0.186571 -0.404338 -0.776076 -0.452807 0.891368 0.020691 
0.154285 0.079986 0.538938 -0.555095 0.704242 0.442620 
0.320694 0.034800 0.806813 -0.537889 0.606353 0.585672 
0.147211 0.047366 0.580149 -0.543821 0.700348 0.462355 
-0.315081 -0.068125 0.241298 -0.323405 0.838185 0.439154 
0.257482 0.181752 0.549353 -0.603673 0.678648 0.418350 
0.126550 -0.236198 0.897428 -0.481910 0.643762 0.594419 
-0.398473 -0.136920 0.333089 -0.209484 0.864190 0.457484 
0.597089 0.235280 -0.266630 -0.310753 0.760187 -0.570568 
-0.192249 -0.075952 0.336482 -0.402508 0.806909 0.432301 
-0.262139 -0.382185 0.826848 -0.281258 0.824935 0.490281 
0.094261 0.224752 0.068652 -0.567375 0.769280 0.293759 
-0.423783 -0.524008 -0.663264 -0.440027 0.896306 0.054873 
-0.230603 0.016316 0.028677 -0.630312 0.632872 -0.449644 
0.012911 -0.036267 0.511619 -0.495049 0.739449 0.456226 
-0.569204 -0.420369 0.087894 -0.777704 0.560487 -0.284659 
-0.608592 -0.432547 0.183421 -0.811872 0.528036 -0.249081 
-0.547205 -0.241664 0.551349 -0.120482 0.887477 0.444824 
-0.083106 0.010088 -0.137258 -0.547488 0.681724 -0.485292 
-0.173229 -0.299649 0.737100 -0.363428 0.777829 0.512740 
0.249310 0.122461 0.623357 -0.580018 0.665865 0.469257 
-0.366899 -0.327281 -0.187260 -0.691628 0.645306 -0.324393 
-0.194780 -0.400950 -0.847546 -0.397505 0.907211 0.137688 
-0.260256 -0.337387 0.751488 -0.281459 0.825063 0.489952 
-0.432469 -0.525531 -0.536203 -0.517942 0.850946 -0.087332 
-0.343946 -0.443062 -0.924189 -0.345133 0.914466 0.211268 
-0.025478 -0.164143 0.667002 -0.445141 0.734451 0.512281 
0.100091 0.100739 0.400903 -0.558643 0.734217 0.385802 
-0.611434 -0.566230 -0.804903 -0.272507 0.916101 0.294106 
-0.355005 -0.245111 -0.093539 -0.700964 0.624091 -0.345196 
0.067548 -0.197754 0.803663 -0.469137 0.674744 0.569765 
0.049056 0.197282 0.041905 -0.556475 0.774967 0.299602 
-0.268875 -0.405231 -1.006700 -0.366932 0.911931 0.183694 
-0.389868 -0.093650 0.274973 -0.251942 0.855549 0.452285 
0.343035 -0.101320 -0.660195 -0.480347 0.850693 -0.213514 
-0.400709 -0.491612 -0.460408 -0.582543 0.789563 -0.192960 
-0.279060 -0.071225 -0.004004 -0.667040 0.618288 -0.415664 
-0.178196 -0.138630 -0.199251 -0.605317 0.678291 -0.416548 
0.521263 0.284572 -0.175273 -0.262514 0.739388 -0.619994 
-0.472059 -0.291724 0.634139 -0.110538 0.890415 0.441523 
0.377953 0.397937 0.390645 -0.652146 0.719034 0.240198 
0.573892 0.482785 0.029197 -0.165541 0.739229 -0.652791 
-0.141705 -0.125802 0.475042 -0.393542 0.792630 0.465684 
0.174936 -0.126067 -0.504722 -0.492059 0.791910 -0.361602 
-0.018858 -0.319432 -0.773064 -0.466032 0.884519 -0.020998 
0.348346 0.424722 0.118923 -0.652366 0.741235 0.158077 
0.128476 0.155690 0.333648 -0.575068 0.741354 0.345965 
0.108025 0.238486 -0.061833 -0.418749 0.700866 -0.577440 
-0.501887 -0.450435 -0.138830 -0.720336 0.623160 -0.304612 
-0.471056 -0.191843 0.416440 -0.188872 0.869110 0.457138 
-0.027870 -0.130928 0.612719 -0.454956 0.739175 0.496623 
-0.466850 -0.339516 0.724483 -0.021131 0.919018 0.393648 
0.351514 0.430458 0.067576 -0.656960 0.746928 0.102477 
-0.440843 -0.376272 -0.132074 -0.709504 0.629960 -0.315840 
0.520128 0.114801 -0.398182 -0.397949 0.782813 -0.478374 
0.572773 0.356124 -0.108161 -0.217056 0.738921 -0.637874 
0.155417 -0.245407 0.930834 -0.495143 0.616573 0.612104 
0.619532 0.196632 -0.339211 -0.346580 0.773782 -0.530230 
-0.357747 -0.439692 -0.403096 -0.605309 0.759484 -0.238296 
0.362226 -0.023043 0.893686 -0.512268 0.563397 0.648202 
0.119083 0.076104 0.485932 -0.549302 0.720695 0.422925 
0.013535 0.083489 -0.144711 -0.496185 0.694476 -0.521061 
0.134659 0.211337 0.194104 -0.583604 0.754624 0.299915 
0.406315 -0.011169 0.918564 -0.512204 0.562693 0.648864 
0.386745 -0.037675 0.924974 -0.512089 0.562956 0.648726 
-0.044986 -0.352564 0.898226 -0.446260 0.696516 0.561888 
0.231787 0.214590 -0.149544 -0.359880 0.721077 -0.592059 
0.334476 0.322575 -0.085607 -0.264966 0.731971 -0.627703 
0.547610 0.250419 -0.227013 -0.309098 0.758360 -0.573889 
0.215446 0.075928 -0.275328 -0.436165 0.739093 -0.513324 
-0.488396 -0.558049 -0.604381 -0.472270 0.881450 -0.002501 
-0.028209 0.112211 -0.083174 -0.504281 0.686671 -0.523625 
-0.225303 -0.112607 0.381635 -0.371431 0.811964 0.450281 
0.078136 -0.110607 -0.401826 -0.502091 0.753597 -0.424260 
-0.345265 -0.456553 -0.878386 -0.345441 0.914461 0.210789 
-0.125413 -0.090016 0.432302 -0.414494 0.791108 0.449824 
0.172283 0.264703 -0.065843 -0.341133 0.711597 -0.614213 
0.142059 0.147740 0.385639 -0.576788 0.732067 0.362483 
-0.038470 -0.019215 0.408494 -0.488473 0.764831 0.420033 
-0.415270 -0.099463 0.206230 -0.769688 0.563230 -0.300586 
-0.205790 -0.216480 0.577823 -0.362500 0.794695 0.486881 
-0.255025 -0.238383 0.583310 -0.284652 0.829654 0.480258 
0.626782 0.124466 -0.474319 -0.411133 0.798787 -0.439215 
-0.064759 -0.202728 0.682843 -0.417636 0.747240 0.516926 
0.165137 0.247477 0.166448 -0.609834 0.745341 0.269387 
0.431280 0.084907 0.869272 -0.518774 0.574335 0.633256 
-0.281716 -0.452276 -0.767546 -0.414909 0.904594 0.097780 
0.191508 -0.202256 -0.731865 -0.483034 0.864627 -0.138197 
0.003068 0.156338 -0.061878 -0.457841 0.693095 -0.556777 
-0.446886 -0.314248 -0.030114 -0.730907 0.602795 -0.320019 
0.381515 0.166157 -0.256829 -0.371077 0.754242 -0.541683 
-0.209023 -0.383277 -0.993168 -0.367650 0.911838 0.182717 
-0.090082 -0.124845 0.531073 -0.424968 0.769842 0.476177 
-0.204466 -0.400593 -0.601396 -0.508533 0.852823 -0.118692 
-0.447833 -0.359389 0.764761 -0.020714 0.919113 0.393450 
-0.334997 -0.330622 -0.239991 -0.664751 0.670508 -0.329433 
-0.520398 -0.223759 0.499293 -0.167352 0.875138 0.454012 
-0.572395 -0.446947 0.042370 -0.763077 0.575798 -0.293546 
0.118259 0.251231 0.017200 -0.620857 0.748642 0.232534 
-0.561564 -0.527109 -0.876473 -0.272503 0.916097 0.294124 
-0.517847 -0.541496 -0.790628 -0.314439 0.916722 0.246474 
0.130670 -0.064717 -0.383608 -0.486486 0.752765 -0.443483 
-0.521387 -0.369178 0.817978 0.044592 0.939100 0.340739 
-0.354924 -0.198776 0.467374 -0.205015 0.864648 0.458642 
-0.546531 -0.365335 0.121255 -0.785371 0.552497 -0.279177 
-0.371361 -0.320143 0.685961 -0.121327 0.887233 0.445081 
0.006639 -0.221909 -0.496864 -0.523446 0.782468 -0.337266 
-0.560725 -0.263744 0.607163 -0.111302 0.890168 0.441828 
-0.572664 -0.277181 0.414579 -0.863753 0.481250 -0.149429 
-0.509101 -0.247821 0.220612 -0.809502 0.530067 -0.252459 
0.219756 -0.114938 0.858392 -0.500289 0.616518 0.607961 
0.601087 0.396618 -0.068451 -0.215936 0.738897 -0.638281 
-0.353870 -0.366897 0.777169 -0.115213 0.888520 0.444138 
-0.027124 -0.306987 0.855655 -0.446773 0.696392 0.561634 
-0.227834 -0.284719 0.677884 -0.282827 0.825102 0.489097 
-0.550702 -0.295714 0.656747 -0.021930 0.918840 0.394020 
0.112911 -0.067764 0.693699 -0.506897 0.684124 0.524433 
0.161721 -0.017694 -0.347912 -0.474285 0.748296 -0.463796 
0.430038 -0.013346 -0.549022 -0.456347 0.813647 -0.360175 
0.345304 0.011046 0.850264 -0.518138 0.578085 0.630357 
-0.124789 -0.306100 0.782368 -0.379192 0.764728 0.520965 
-0.126157 -0.328236 -0.537686 -0.527521 0.814389 -0.241851 
-0.525761 -0.291145 0.192083 -0.809372 0.530205 -0.252585 
-0.011282 0.164482 0.035009 -0.553737 0.776437 0.300868 
-0.440812 -0.486400 -0.892566 -0.320808 0.916209 0.240092 
-0.255302 -0.057986 0.261743 -0.395470 0.816362 0.420901 
-0.390684 -0.506919 -0.583796 -0.517256 0.851400 -0.086980 
0.367670 0.413303 0.284578 -0.654741 0.725815 0.210966 
-0.477614 -0.549865 -0.670077 -0.438366 0.896881 0.058641 
-0.242191 -0.004044 0.158868 -0.423044 0.814416 0.397190 
-0.130427 0.009168 0.230115 -0.473045 0.791743 0.386486 
-0.337287 -0.475263 -0.760786 -0.414765 0.904640 0.097965 
-0.593911 -0.437965 0.126649 -0.797802 0.541150 -0.265836 
0.116510 -0.159698 -0.504159 -0.499564 0.788892 -0.357891 
-0.448155 -0.527436 -0.478013 -0.580629 0.792739 -0.185569 
-0.575108 -0.251708 0.471120 -0.870419 0.476852 -0.122409 
0.057272 0.106838 0.297945 -0.553544 0.754938 0.351649 
0.199449 0.124764 -0.218849 -0.428425 0.722529 -0.542589 
-0.624142 -0.342508 0.586081 -0.866228 0.493320 -0.079273 
-0.589724 -0.328412 0.734975 0.044874 0.939171 0.340506 
-0.040503 -0.109604 0.561895 -0.456720 0.746106 0.484492 
-0.658206 -0.398000 0.588770 -0.866202 0.493377 -0.079203 
0.280377 0.376227 0.038173 -0.645772 0.741328 0.182788 
0.410236 0.418193 -0.010468 -0.218165 0.738337 -0.638171 
0.470429 0.456156 0.013581 -0.175855 0.739233 -0.650084 
-0.379327 -0.490924 -0.518248 -0.548303 0.823067 -0.148068 
0.013121 0.165361 0.080712 -0.554210 0.775880 0.301433 
-0.470456 -0.308387 0.027315 -0.759250 0.577448 -0.300157 
0.312796 0.238803 0.552801 -0.630994 0.680211 0.373041 
-0.459887 -0.501548 -0.350677 -0.630289 0.734841 -0.250488 
-0.435562 -0.164481 0.375001 -0.204610 0.865201 0.457779 
-0.405025 -0.475440 -0.398685 -0.605630 0.759504 -0.237415 
-0.604543 -0.492994 0.022407 -0.762916 0.576004 -0.293563 
-0.105205 0.102209 0.064575 -0.540873 0.781969 0.309809 
0.333108 0.253545 -0.151234 -0.320986 0.721367 -0.613675 
-0.352605 -0.380046 -0.287470 -0.651868 0.698281 -0.295756 
0.430724 0.489349 0.244877 -0.659781 0.741188 0.123809 
-0.498589 -0.531129 -0.341133 -0.630776 0.734576 -0.250041 
0.053614 -0.165864 0.752235 -0.469289 0.689790 0.551323 
-0.426117 -0.242979 0.538441 -0.167238 0.875151 0.454029 
0.417068 0.136664 -0.306201 -0.375038 0.763944 -0.525106 
0.193709 -0.047314 -0.409024 -0.473668 0.762511 -0.440699 
0.258755 0.206970 0.507517 -0.620481 0.687453 0.377375 
-0.575707 -0.322024 0.304614 -0.831556 0.510882 -0.217978 
0.143562 -0.079952 0.745316 -0.504208 0.669148 0.545908 
0.424419 -0.048851 0.967923 -0.512073 0.562606 0.649043 
0.374520 0.137908 0.771025 -0.558584 0.625599 0.544620 
0.145019 -0.187499 0.862752 -0.486089 0.641640 0.593309 
-0.455816 -0.518049 -0.791730 -0.325558 0.916118 0.233966 
0.035128 0.135272 0.182585 -0.555659 0.769522 0.314766 
-0.282840 -0.181398 0.465078 -0.294775 0.835756 0.463272 
0.086464 -0.257406 -0.921344 -0.440384 0.896103 0.055322 
-0.146955 -0.018802 0.270382 -0.443686 0.796116 0.411513 
-0.102746 -0.361808 0.877436 -0.396848 0.748115 0.531823 
0.366757 -0.043841 -0.541888 -0.462502 0.808660 -0.363541 
-0.517403 -0.311570 0.132932 -0.785297 0.552392 -0.279592 
-0.330150 -0.171569 0.426838 -0.209967 0.863819 0.457963 
0.436291 0.493500 0.075470 -0.649082 0.759823 -0.036892 
0.066563 -0.089627 0.666638 -0.490154 0.704484 0.513275 
-0.340548 -0.476281 -0.581103 -0.517138 0.851392 -0.087744 
0.220886 -0.194253 -0.834249 -0.464715 0.885283 -0.017733 
0.143443 0.174841 -0.143608 -0.418615 0.704396 -0.573226 
-0.443917 -0.473835 -0.951977 -0.320945 0.916192 0.239973 
-0.233418 -0.180008 0.497655 -0.350897 0.810201 0.469516 
0.682952 0.206324 -0.364788 -0.346547 0.773981 -0.529961 
-0.542943 -0.414145 0.023295 -0.762779 0.576009 -0.293908 
0.293433 0.208504 -0.178414 -0.359334 0.722204 -0.591017 
0.107652 0.033275 0.539136 -0.533045 0.715266 0.451949 
0.270782 -0.192252 0.970060 -0.498548 0.609221 0.616684 
0.264598 0.239991 0.456658 -0.625535 0.698406 0.347758 
-0.401321 -0.422938 -0.283623 -0.658520 0.697611 -0.282295 
0.317549 0.155113 -0.242299 -0.392347 0.743181 -0.541983 
-0.612699 -0.312478 0.634122 -0.854283 0.518986 -0.029236 
0.123809 0.226185 0.124051 -0.578737 0.761705 0.291323 
0.416820 0.034651 -0.445178 -0.426703 0.789186 -0.441713 
0.272302 0.310491 -0.068455 -0.321949 0.718954 -0.615998 
0.263231 0.336678 0.156187 -0.640417 0.736779 0.216849 
0.231852 -0.152589 -0.628533 -0.485671 0.845417 -0.222247 
0.588693 0.127156 -0.430321 -0.410869 0.798539 -0.439911 
-0.273987 -0.184870 -0.138103 -0.657030 0.647329 -0.386364 
-0.401349 -0.296046 0.636609 -0.121557 0.887157 0.445170 
0.139155 -0.226303 -0.708074 -0.485911 0.861566 -0.146952 
0.306965 0.064831 0.762163 -0.557639 0.626047 0.545072 
0.216156 -0.083152 0.822677 -0.506830 0.629772 0.588652 
0.295023 0.205462 0.576594 -0.608864 0.670142 0.424492 
-0.161587 -0.087870 0.383135 -0.406518 0.801008 0.439464 
-0.403180 -0.294511 -0.079470 -0.713029 0.618214 -0.330759 
-0.283103 -0.364169 0.786808 -0.280193 0.825489 0.489959 
-0.277477 -0.110267 -0.049714 -0.665987 0.626350 -0.405149 
-0.402940 -0.216973 0.023305 -0.730140 0.591969 -0.341275 
0.076194 -0.318753 0.946204 -0.480134 0.646163 0.593249 
0.693759 0.305401 -0.222833 -0.304047 0.759126 -0.575572 
-0.461670 -0.379275 0.810984 -0.020048 0.919322 0.392994 
0.065641 0.189361 0.104935 -0.561351 0.770891 0.301020 
0.068622 0.086386 -0.179469 -0.477271 0.706353 -0.522759 
0.071946 -0.054304 0.624680 -0.499048 0.710573 0.496021 
-0.320365 -0.158147 -0.044447 -0.688901 0.619786 -0.375872 
-0.152112 -0.259269 -0.378915 -0.577434 0.739285 -0.346450 
0.175182 -0.203665 0.906041 -0.495644 0.616008 0.612267 
0.445122 0.315247 -0.121033 -0.254488 0.735412 -0.628017 
-0.227505 -0.427430 -0.736138 -0.453063 0.891248 0.020274 
-0.446313 -0.466504 -0.286737 -0.660319 0.698597 -0.275576 
-0.441258 -0.535732 -0.606196 -0.472327 0.881419 -0.002798 
0.193160 0.299632 0.065433 -0.625478 0.746628 0.226547 
0.662783 0.159931 -0.436013 -0.368307 0.783469 -0.500526 
0.397151 0.261174 -0.161298 -0.271861 0.735620 -0.620448 
0.594961 0.442625 -0.012982 -0.175948 0.739250 -0.650040 
-0.132387 0.060571 -0.036022 -0.573059 0.658861 -0.487345 
-0.119700 -0.213964 -0.351513 -0.569724 0.732692 -0.372259 
-0.561327 -0.482497 -0.057681 -0.733568 0.608145 -0.303377 
0.405221 0.455320 0.281507 -0.655591 0.729198 0.196138 
-0.038398 0.059773 -0.127635 -0.513150 0.687114 -0.514346 
0.254772 -0.164112 0.934677 -0.498612 0.609416 0.616440 
-0.022415 0.022056 -0.177321 -0.513539 0.696502 -0.501162 
-0.581329 -0.380020 0.204056 -0.812109 0.527804 -0.248802 
0.383333 0.041803 0.856258 -0.518770 0.574593 0.633025 
0.346996 0.380335 0.326166 -0.652154 0.719303 0.239369 
-0.558009 -0.359427 0.809460 0.045231 0.939265 0.340199 
-0.088469 0.009408 0.278701 -0.481828 0.782264 0.394847 
-0.191573 0.010930 0.181140 -0.429068 0.811286 0.397135 
0.680935 0.350722 -0.153228 -0.217862 0.739159 -0.637322 
-0.625282 -0.389984 0.363727 -0.860736 0.483657 -0.158775 
0.006259 -0.171552 0.710624 -0.455582 0.715601 0.529492 
-0.133996 -0.181179 0.578695 -0.382942 0.784797 0.487287 
0.643661 0.313506 -0.185160 -0.236783 0.741949 -0.627252 
0.218491 0.307350 -0.054549 -0.339755 0.711854 -0.614679 
-0.147776 -0.360026 -0.976972 -0.395704 0.907404 0.141552 
-0.261491 -0.328832 -0.344520 -0.613089 0.727195 -0.308720 
0.274024 0.361338 0.099442 -0.645617 0.740913 0.185006 
-0.551816 -0.560261 -0.763993 -0.314212 0.916736 0.246710 
0.366284 0.423928 0.231915 -0.655238 0.729484 0.196257 
-0.550447 -0.511141 -0.152100 -0.720543 0.623158 -0.304125 
-0.102194 -0.355592 -0.681063 -0.489346 0.867596 -0.088417 
0.008702 -0.290834 -0.672504 -0.504454 0.839236 -0.203001 
-0.559014 -0.456744 -0.015232 -0.745563 0.594833 -0.300515 
0.179900 0.044583 0.629585 -0.549521 0.680502 0.484710 
-0.367688 -0.497415 -0.643635 -0.471530 0.881846 -0.002715 
0.018006 0.096469 0.248099 -0.545411 0.765986 0.340283 
-0.359081 -0.065802 0.228217 -0.323099 0.838318 0.439124 
-0.051842 -0.323885 -0.925225 -0.424186 0.900784 0.093024 
0.309975 -0.155709 0.967746 -0.499696 0.606383 0.618549 
-0.441277 -0.315272 0.671909 -0.110134 0.890553 0.441345 
-0.481406 -0.403400 -0.098840 -0.722405 0.618934 -0.308303 
-0.007686 -0.017468 -0.231489 -0.515844 0.706846 -0.484019 
0.068913 0.229819 0.007836 -0.561849 0.772765 0.295228 
0.031351 -0.292747 -0.740157 -0.476958 0.876083 -0.070641 
0.329169 0.067674 -0.345877 -0.425292 0.761362 -0.489342 
0.280502 -0.091928 0.887200 -0.501930 0.606188 0.616930 
-0.162752 -0.392594 -0.707817 -0.480894 0.875471 -0.047874 
-0.523220 -0.439312 -0.073877 -0.732926 0.608720 -0.303777 
0.185295 0.200309 0.359783 -0.600319 0.725834 0.335832 
-0.308421 -0.042420 0.192708 -0.410764 0.816852 0.405001 
-0.488490 -0.543832 -0.737471 -0.358602 0.914059 0.189473 
-0.074956 0.100966 0.109880 -0.541459 0.781175 0.310787 
-0.310755 -0.242476 0.560845 -0.201826 0.863996 0.461277 
-0.144412 -0.372341 -0.884642 -0.397900 0.907060 0.137540 
-0.004962 0.061909 0.287687 -0.517989 0.767553 0.377557 
0.201587 0.232995 0.316303 -0.610591 0.728691 0.310142 
-0.557564 -0.320866 0.239513 -0.818669 0.521888 -0.239612 
-0.484256 -0.371202 -0.041435 -0.735150 0.603663 -0.308456 
0.581640 0.055397 -0.597899 -0.452939 0.827119 -0.332747 
0.331289 0.380482 0.268638 -0.653484 0.726329 0.213083 
0.283260 0.266813 -0.120857 -0.322215 0.719373 -0.615370 
0.174641 0.148774 0.450869 -0.583511 0.715475 0.384200 
-0.535055 -0.378028 0.069049 -0.777198 0.560670 -0.285680 
-0.433470 -0.426232 -0.231492 -0.691476 0.655875 -0.302802 
0.034956 -0.159215 -0.427191 -0.520375 0.765191 -0.379069 
-0.077241 -0.349938 -0.739636 -0.466478 0.884271 -0.021532 
-0.488365 -0.490182 -0.252887 -0.661102 0.697854 -0.275580 
-0.001056 -0.316398 0.888138 -0.458316 0.680025 0.572287 
-0.404826 -0.180478 0.427789 -0.204527 0.865078 0.458049 
0.073078 -0.258990 0.880218 -0.480158 0.646973 0.592346 
0.527323 0.036422 -0.558622 -0.453018 0.827062 -0.332782 
-0.311665 -0.349206 0.755677 -0.188818 0.866758 0.461605 
-0.296531 -0.012809 0.156872 -0.422551 0.814716 0.397100 
-0.553942 -0.599603 -0.514835 -0.520619 0.849048 -0.089855 
-0.063155 -0.329205 0.857677 -0.444076 0.699104 0.560402 
0.435608 0.077174 -0.395238 -0.411128 0.780188 -0.471466 
0.015826 0.018310 0.414874 -0.510085 0.753572 0.414660 
0.262238 -0.061850 0.844619 -0.508716 0.610803 0.606735 
-0.073998 -0.174300 0.627021 -0.419422 0.758854 0.498223 
-0.246663 -0.281884 -0.298670 -0.622533 0.702493 -0.344899 
-0.130123 -0.377342 -0.756266 -0.466341 0.884365 -0.020594 
0.522149 0.202307 -0.272843 -0.344582 0.766272 -0.542301 
0.649038 0.231753 -0.302363 -0.327455 0.767964 -0.550459 
-0.107685 -0.260825 -0.431586 -0.554123 0.763286 -0.332179 
0.708690 0.252565 -0.301442 -0.327073 0.767890 -0.550788 
-0.205966 -0.395355 -0.910632 -0.367950 0.911815 0.182224 
0.356506 0.056650 0.819452 -0.539161 0.604207 0.586719 
0.389301 -0.088099 -0.706400 -0.481143 0.857116 -0.183993 
-0.030212 -0.212862 0.730547 -0.435543 0.726539 0.531454 
-0.285954 -0.147021 0.402480 -0.300664 0.836750 0.457659 
-0.499457 -0.207507 0.261603 -0.809655 0.529935 -0.252246 
0.047664 -0.045139 0.574238 -0.498074 0.722636 0.479291 
-0.179031 -0.340049 -0.480894 -0.553926 0.790672 -0.260774 
0.168017 0.222632 0.250533 -0.594689 0.744729 0.302859 
0.273622 0.109547 0.670244 -0.577127 0.656314 0.485980 
-0.195634 -0.018982 0.229496 -0.425269 0.810616 0.402553 
0.391700 0.095679 -0.347322 -0.408395 0.770465 -0.489486 
0.173594 -0.142113 0.841704 -0.492531 0.638053 0.591862 
0.264790 -0.030223 -0.434385 -0.461625 0.771947 -0.437036 
-0.589266 -0.362368 0.267639 -0.819145 0.521499 -0.238831 
0.460260 0.272979 -0.170057 -0.263325 0.738980 -0.620136 
0.295495 -0.016323 0.831381 -0.520311 0.605612 0.602088 
0.223552 0.197171 0.453788 -0.608602 0.704959 0.364192 
-0.095183 -0.323926 0.826801 -0.396653 0.748481 0.531453 
-0.369722 -0.423035 -0.340015 -0.626089 0.735806 -0.258074 
-0.359437 -0.111498 0.299799 -0.251938 0.855522 0.452338 
-0.359965 -0.054222 0.143339 -0.729218 0.585399 -0.354328 
-0.246277 -0.263268 0.632143 -0.284190 0.829368 0.481025 
0.211598 -0.200098 -0.895223 -0.464562 0.885377 -0.016997 
-0.386125 -0.451574 -0.978785 -0.325612 0.915963 0.234498 
0.152433 0.219261 -0.101590 -0.417460 0.702271 -0.576666 
-0.133038 -0.243116 0.680985 -0.379076 0.773882 0.507355 
0.039093 -0.290429 -0.800874 -0.462355 0.886639 -0.009958 
-0.191053 -0.152456 0.477510 -0.368509 0.804396 0.465992 
-0.404603 -0.362008 0.765286 -0.077277 0.900713 0.427486 
-0.087583 0.059571 -0.085694 -0.522286 0.677490 -0.517904 
0.089169 0.134630 -0.148170 -0.445229 0.705190 -0.551796 
-0.481294 -0.278159 0.096661 -0.777195 0.560081 -0.286840 
-0.603627 -0.332949 0.414472 -0.863948 0.481034 -0.148994 
-0.065985 0.133016 0.041309 -0.550559 0.777765 0.303259 
0.473627 0.064948 -0.444438 -0.416359 0.794371 -0.442289 
0.026612 -0.294904 -0.859505 -0.439921 0.896261 0.056443 
-0.478923 -0.461996 -0.207697 -0.692195 0.655299 -0.302407 
-0.022601 0.113408 0.144090 -0.548382 0.776004 0.311600 
-0.518948 -0.217536 0.317356 -0.819003 0.521704 -0.238870 
-0.603264 -0.308380 0.582231 -0.866188 0.493422 -0.079078 
0.039293 -0.237352 0.826098 -0.460087 0.679317 0.571707 
0.271874 -0.118082 -0.589900 -0.474228 0.830933 -0.290961 
-0.075955 0.106222 -0.045211 -0.521884 0.677337 -0.518509 
0.333624 0.117652 0.736012 -0.569833 0.641432 0.513669 
-0.625395 -0.351656 0.636684 -0.854303 0.518947 -0.029321 
-0.534706 -0.472039 -0.108469 -0.721183 0.622344 -0.304275 
-0.242400 -0.410178 -0.547640 -0.536657 0.826930 -0.167888 
-0.323266 -0.477244 -0.699155 -0.453121 0.891206 0.020799 
0.290634 0.240123 0.508917 -0.630857 0.680747 0.372295 
0.242914 0.303476 0.216064 -0.629426 0.738373 0.242134 
0.389437 0.090049 0.818744 -0.539491 0.604192 0.586431 
-0.085749 -0.016164 0.334353 -0.475436 0.779567 0.407721 
-0.200051 -0.268759 -0.334605 -0.599097 0.721376 -0.347418 
0.469159 0.116890 -0.359748 -0.399115 0.779925 -0.482104 
0.195055 0.087983 0.591128 -0.564247 0.684082 0.462231 
-0.130540 -0.348252 0.840265 -0.379266 0.764155 0.521752 
-0.417197 -0.463150 -0.340817 -0.629950 0.734707 -0.251732 
-0.231306 -0.350156 0.783803 -0.282183 0.824552 0.490395 
-0.595058 -0.287164 0.530045 -0.870587 0.476907 -0.120987 
0.241963 0.339081 0.054492 -0.645038 0.741280 0.185553 
0.019336 -0.337222 0.925501 -0.458697 0.679421 0.572699 
0.092105 -0.260764 -0.753889 -0.476680 0.876218 -0.070845 
-0.134954 0.032861 0.180919 -0.476282 0.794605 0.376508 
-0.168221 -0.301844 -0.424043 -0.571829 0.761946 -0.304057 
-0.639440 -0.378281 0.536170 -0.870619 0.476998 -0.120397 
0.485985 0.006858 -0.572613 -0.453313 0.827093 -0.332301 
-0.576488 -0.522177 -0.103509 -0.721118 0.622483 -0.304144 
-0.570020 -0.591234 -0.686738 -0.358679 0.914085 0.189203 
0.117582 -0.170448 0.821754 -0.485579 0.650366 0.584156 
0.390319 0.461902 0.154986 -0.659375 0.741726 0.122751 
-0.013755 -0.285923 -0.604682 -0.507527 0.834523 -0.214450 
0.323138 -0.125352 -0.715736 -0.482256 0.865018 -0.138466 
-0.218407 -0.131281 -0.147174 -0.624393 0.658679 -0.419852 
-0.253801 -0.421372 -0.876171 -0.367317 0.911925 0.182953 
0.413405 0.356003 -0.072774 -0.253229 0.734371 -0.629742 
-0.320882 -0.396705 -0.370819 -0.609568 0.748483 -0.261153 
0.239863 -0.035425 0.796645 -0.522074 0.626123 0.579144 
-0.411874 -0.375910 -0.185531 -0.698858 0.642236 -0.314850 
0.012458 -0.297114 -0.904994 -0.427752 0.899813 0.085815 
-0.365178 -0.347904 0.739024 -0.115315 0.888619 0.443912 
-0.285260 -0.443132 -0.574202 -0.518743 0.848354 -0.105835 
-0.066164 -0.070773 -0.235392 -0.549926 0.699246 -0.456767 
0.375622 0.301294 -0.115028 -0.264964 0.732347 -0.627265 
-0.452581 -0.130877 0.256864 -0.785091 0.551720 -0.281490 
0.203410 -0.147893 -0.575635 -0.494276 0.799131 -0.342172 
-0.574544 -0.398116 0.152459 -0.798121 0.540854 -0.265480 
0.233511 0.348679 0.005488 -0.644980 0.741364 0.185419 
0.383224 -0.060434 -0.596522 -0.473588 0.831568 -0.290190 
-0.283983 -0.300480 0.677014 -0.200940 0.863546 0.462505 
0.111827 -0.231342 -0.657944 -0.502197 0.839482 -0.207526 
0.215890 0.291922 0.166154 -0.626672 0.742514 0.236549 
0.393457 0.010035 0.891450 -0.512407 0.563104 0.648346 
-0.076860 -0.217544 -0.401620 -0.549960 0.750926 -0.365588 
-0.562240 -0.315856 0.697984 0.007292 0.928170 0.372086 
-0.173660 -0.272520 0.694381 -0.364369 0.778597 0.510902 
-0.334700 -0.384703 0.816240 -0.115559 0.888378 0.444331 
0.186110 0.180406 0.410325 -0.595916 0.718870 0.357924 
-0.443611 -0.127734 0.332930 -0.208782 0.864367 0.457472 
0.662557 0.385422 -0.096626 -0.216471 0.738970 -0.638015 
-0.475355 -0.232356 0.504243 -0.167354 0.875128 0.454030 
-0.513154 -0.194044 0.454073 -0.188147 0.869318 0.457041 
-0.202119 0.054003 0.077563 -0.531277 0.786308 0.315379 
-0.588984 -0.295842 0.474441 -0.870475 0.476830 -0.122093 
-0.451798 -0.205748 0.460839 -0.188596 0.869099 0.457274 
-0.240175 -0.427353 -0.808567 -0.397653 0.907251 0.136997 
-0.493646 -0.514884 -0.293562 -0.660237 0.698927 -0.274933 
0.519009 0.054109 -0.503602 -0.438490 0.807707 -0.394127 
-0.070971 -0.307465 -0.568762 -0.526019 0.815388 -0.241756 
-0.114671 -0.209883 0.643342 -0.386231 0.773778 0.502089 
-0.497956 -0.491362 -0.940988 -0.301276 0.916659 0.262620 
-0.108009 -0.168639 -0.306684 -0.569294 0.716990 -0.402281 
0.166038 0.118851 0.495045 -0.572834 0.709373 0.410671 
-0.501670 -0.328076 0.071172 -0.777021 0.560511 -0.286472 
-0.474874 -0.207911 0.186679 -0.785190 0.551873 -0.280914 
-0.107974 0.066175 0.143951 -0.527762 0.782270 0.330940 
0.477319 -0.036247 -0.713292 -0.479483 0.850974 -0.214333 
0.444475 -0.048408 -0.673191 -0.479573 0.850929 -0.214311 
-0.451533 -0.514771 -0.411561 -0.587215 0.785553 -0.195152 
0.226631 0.316868 0.111195 -0.627348 0.745269 0.225851 
0.035005 0.133013 -0.112613 -0.457865 0.693444 -0.556324 
0.514586 -0.003972 -0.667111 -0.471662 0.842024 -0.261784 
0.285214 -0.135379 -0.663856 -0.480859 0.850519 -0.213054 
0.200890 -0.033932 0.754878 -0.520928 0.650984 0.552136 
-0.042711 0.025858 0.306505 -0.501639 0.770930 0.392460 
0.229672 -0.172315 -0.691809 -0.483944 0.862276 -0.149257 
-0.018037 -0.068997 -0.272849 -0.526136 0.718615 -0.454724 
-0.494510 -0.560164 -0.495318 -0.520971 0.848761 -0.090525 
0.438968 0.506858 0.194430 -0.656830 0.753662 0.023835 
-0.651925 -0.498389 0.148723 -0.798176 0.540790 -0.265444 
-0.085414 -0.337423 -0.980208 -0.398424 0.906893 0.137126 
-0.304685 -0.089926 0.296125 -0.322890 0.838140 0.439617 
-0.534421 -0.217780 0.365846 -0.831672 0.510825 -0.217667 
-0.047486 0.155686 0.000423 -0.553050 0.776834 0.301107 
0.352476 0.421039 0.174423 -0.652855 0.739690 0.163215 
0.298427 0.013618 -0.396625 -0.448568 0.769352 -0.454844 
-0.128830 -0.302522 -0.478516 -0.544681 0.791894 -0.276090 
-0.414502 -0.337744 0.716759 -0.109727 0.890698 0.441154 
-0.552647 -0.234750 0.411171 -0.863625 0.481412 -0.149647 
0.051832 -0.184784 -0.483250 -0.512984 0.781662 -0.354755 
-0.000168 -0.144028 -0.376345 -0.531092 0.744574 -0.404414 
0.129377 -0.290765 0.955535 -0.481501 0.643782 0.594728 
-0.614764 -0.480639 0.093242 -0.777578 0.560796 -0.284394 
-0.087454 -0.350598 -0.867014 -0.424000 0.900887 0.092876 
0.275814 0.304988 0.329773 -0.637863 0.716910 0.281372 
-0.624531 -0.416830 0.287806 -0.847543 0.495571 -0.189947 
-0.558300 -0.343347 0.753810 0.044875 0.939171 0.340505 
-0.239278 -0.149689 0.433884 -0.356762 0.812680 0.460729 
-0.543250 -0.561361 -0.321682 -0.631172 0.734178 -0.250209 
-0.088583 -0.097889 0.484538 -0.429444 0.773006 0.466946 
-0.216401 0.025128 0.117946 -0.426457 0.813588 0.395234 
-0.175330 -0.049130 -0.105709 -0.611638 0.651295 -0.449126 
-0.167925 -0.219764 -0.307931 -0.594238 0.712049 -0.373990 
-0.188193 -0.329928 0.774134 -0.362834 0.777690 0.513372 
-0.433079 -0.523336 -0.729440 -0.359557 0.913909 0.188386 
-0.549327 -0.341363 0.179808 -0.809561 0.530076 -0.252249 
-0.152430 -0.171951 -0.264370 -0.591741 0.699536 -0.400615 
-0.356548 -0.283728 -0.141745 -0.694514 0.634856 -0.338540 
-0.261074 -0.212840 0.532227 -0.285224 0.829857 0.479566 
-0.061561 0.075020 0.175932 -0.529802 0.780204 0.332553 
0.198488 0.124983 0.540574 -0.581104 0.693273 0.426252 
-0.064102 -0.024186 -0.188902 -0.545588 0.689683 -0.476100 
0.326689 0.345032 0.366900 -0.643506 0.710449 0.284890 
0.030916 0.039740 -0.200494 -0.494238 0.705610 -0.507783 
0.256459 0.065322 0.703743 -0.560573 0.651200 0.511562 
-0.318587 -0.281559 -0.198395 -0.667162 0.660145 -0.345114 
0.022840 -0.278879 0.861283 -0.458981 0.679574 0.572289 
0.132455 0.005918 0.618268 -0.530121 0.697037 0.482816 
-0.496306 -0.543804 -0.391935 -0.587656 0.785227 -0.195138 
0.119445 -0.031259 0.654676 -0.516010 0.691306 0.505796 
0.149422 -0.121181 0.797256 -0.496232 0.651355 0.574012 
0.086565 0.181193 -0.099265 -0.422537 0.699921 -0.575824 
-0.404090 -0.384788 0.812812 -0.076765 0.900848 0.427294 
-0.490503 -0.356012 0.770394 0.006074 0.927788 0.373058 
-0.522125 -0.283613 0.605980 -0.110992 0.890265 0.441711 
-0.151213 -0.363362 -0.582837 -0.514589 0.832885 -0.203716 
0.030915 0.072115 0.330183 -0.526789 0.759043 0.382554 
-0.570924 -0.611303 -0.615041 -0.438772 0.896717 0.058127 
0.251688 0.167519 -0.203957 -0.400890 0.726559 -0.558032 
-0.164468 -0.088774 -0.160094 -0.603440 0.666909 -0.437140 
-0.309419 -0.464699 -0.637370 -0.485039 0.873184 -0.047831 
-0.012606 0.093879 0.200583 -0.541859 0.771483 0.333471 
0.288739 -0.131979 0.931104 -0.499790 0.606589 0.618271 
-0.338422 -0.298095 0.650498 -0.188946 0.867710 0.459760 
-0.184901 -0.120711 0.425162 -0.377416 0.805981 0.456017 
-0.249173 -0.402262 -0.936067 -0.367208 0.911899 0.183296 
0.496623 0.004317 0.987820 -0.512149 0.562392 0.649168 
0.099681 -0.111587 0.734359 -0.492984 0.678456 0.544669 
0.214983 0.262315 0.270408 -0.617974 0.734716 0.279821 
0.352628 -0.112670 -0.750966 -0.482196 0.865109 -0.138109 
-0.354131 -0.090638 0.107217 -0.728729 0.585878 -0.354544 
0.323156 0.310862 0.435676 -0.638397 0.699290 0.321625 
0.328560 -0.091362 -0.603947 -0.473834 0.831344 -0.290429 
-0.348628 -0.454541 -0.462588 -0.581837 0.787470 -0.203362 
0.204872 -0.162654 0.890208 -0.496293 0.615422 0.612331 
0.131199 0.111383 0.440587 -0.564465 0.726440 0.392000 
0.210561 -0.080716 -0.466119 -0.476224 0.776667 -0.412310 
-0.645265 -0.432308 0.381135 -0.860943 0.483460 -0.158253 
0.318701 0.410168 0.022690 -0.656911 0.746880 0.103144 
-0.274798 -0.118160 0.351820 -0.326274 0.833309 0.446253 
0.105446 0.000843 -0.291076 -0.483938 0.732999 -0.478034 
-0.368259 -0.155576 0.387284 -0.209589 0.864047 0.457707 
-0.182263 -0.008771 -0.057453 -0.614905 0.640394 -0.460203 
-0.489874 -0.159027 0.385573 -0.189490 0.868983 0.457123 
-0.233854 -0.181127 -0.183975 -0.630842 0.667926 -0.394857 
-0.467425 -0.510181 -0.848159 -0.320324 0.916259 0.240547 
-0.458507 -0.418957 -0.169676 -0.704351 0.638445 -0.310285 
0.040421 -0.039862 -0.289442 -0.505140 0.727748 -0.463913 
-0.243438 -0.086335 0.316040 -0.383027 0.816141 0.432672 
-0.314881 -0.042562 0.091653 -0.727085 0.586658 -0.356624 
0.170555 -0.221301 -0.824691 -0.464571 0.885370 -0.017125 
0.126078 0.182205 0.255700 -0.577533 0.751427 0.319082 
0.035609 0.007882 0.468258 -0.513183 0.742155 0.431101 
0.566098 0.068940 -0.532327 -0.443139 0.820904 -0.360201 
-0.076090 -0.279270 -0.502666 -0.532161 0.797508 -0.284226 
0.218761 -0.191059 -0.782537 -0.477826 0.873296 -0.095055 
0.175491 0.270823 0.115732 -0.621603 0.747811 0.233213 
-0.144088 -0.043107 0.315905 -0.443085 0.795288 0.413755 
0.540888 0.391225 -0.062253 -0.216620 0.738778 -0.638187 
0.077232 -0.286369 0.912297 -0.480125 0.646314 0.593091 
-0.267813 -0.141360 -0.097379 -0.659098 0.637433 -0.399085 
-0.461645 -0.266803 0.584721 -0.121163 0.887270 0.445053 
0.056961 0.006729 -0.249178 -0.493200 0.716060 -0.493975 
-0.019306 -0.307798 -0.970359 -0.424413 0.900715 0.092661 
0.144840 0.262194 0.066287 -0.621167 0.748362 0.232605 
0.516884 0.494899 0.049957 -0.165460 0.739228 -0.652814 
-0.505263 -0.257490 0.550842 -0.121004 0.887325 0.444987 
0.080057 0.037090 0.489001 -0.530045 0.729796 0.431799 
-0.119591 0.110114 0.018961 -0.540767 0.782145 0.309547 
-0.165579 -0.371794 -0.930223 -0.395591 0.907433 0.141681 
-0.011114 -0.026701 0.459202 -0.493439 0.753296 0.434814 
-0.614933 -0.329811 0.528614 -0.870622 0.476926 -0.120665 
0.025299 0.150108 0.133308 -0.555404 0.772764 0.307183 
-0.492621 -0.172254 0.305463 -0.809811 0.529818 -0.251991 
0.085431 -0.223726 -0.599030 -0.505298 0.815346 -0.282640 
0.195447 -0.218061 0.935935 -0.495661 0.615583 0.612681 
-0.650034 -0.375243 0.737635 -0.854060 0.519398 -0.028409 
-0.575759 -0.295683 0.361244 -0.860376 0.484182 -0.159125 
0.442166 -0.031801 -0.611109 -0.471722 0.841728 -0.262625 
-0.663255 -0.542667 -0.906162 -0.271879 0.916065 0.294801 
-0.449355 -0.220756 0.112585 -0.769174 0.564072 -0.300324 
-0.034747 0.132617 0.085562 -0.550700 0.777425 0.303875 
0.345424 0.003032 -0.443647 -0.446770 0.779094 -0.439782 
-0.352298 -0.473719 -0.819497 -0.359698 0.913705 0.189105 
0.477504 0.162661 -0.306877 -0.365761 0.768991 -0.524281 
-0.230035 -0.021967 -0.010429 -0.630311 0.633223 -0.449151 
0.092357 -0.007488 0.582907 -0.519439 0.711280 0.473566 
-0.392088 -0.250676 -0.041407 -0.714801 0.612080 -0.338258 
-0.323585 -0.455971 -0.521200 -0.548113 0.823113 -0.148516 
-0.386933 -0.102907 0.158516 -0.733975 0.583231 -0.348025 
0.311807 0.345635 0.317886 -0.651628 0.719533 0.240111 
0.068854 -0.262566 -0.694316 -0.503674 0.839691 -0.203057 
0.345131 0.118426 -0.295335 -0.399318 0.752847 -0.523227 
-0.522057 -0.571901 -0.647102 -0.438512 0.896817 0.058538 
-0.190027 -0.369278 -0.533412 -0.538666 0.812558 -0.222685 
0.237234 0.260104 0.340693 -0.622076 0.720732 0.305887 
-0.085273 -0.151123 0.579908 -0.421473 0.763944 0.488621 
0.293901 0.154494 0.645359 -0.584889 0.659154 0.472675 
0.262975 0.033273 0.747083 -0.546454 0.638879 0.541499 
-0.034120 -0.322356 -0.882720 -0.424434 0.900734 0.092378 
-0.624855 -0.374092 0.420379 -0.864042 0.480934 -0.148773 
0.101946 -0.134583 -0.451180 -0.501724 0.771918 -0.390404 
0.091821 0.170599 0.207394 -0.568892 0.760295 0.313550 
0.231279 -0.006781 -0.378342 -0.461272 0.759979 -0.457887 
-0.233199 -0.060843 -0.054230 -0.630562 0.638347 -0.441480 
-0.216141 -0.311726 -0.379982 -0.595895 0.741188 -0.309110 
-0.621606 -0.331040 0.677506 -0.854150 0.519232 -0.028741 
0.616996 0.346199 -0.130848 -0.217294 0.739038 -0.637657 
0.150196 -0.094108 -0.441454 -0.485076 0.769560 -0.415306 
0.326669 0.387239 0.212323 -0.651520 0.731635 0.200579 
-0.036598 -0.075111 0.510382 -0.468465 0.750335 0.466410 
-0.203394 -0.192980 -0.234212 -0.614023 0.685952 -0.390443 
-0.190631 -0.247791 0.640756 -0.363014 0.789091 0.495537 
-0.085468 0.041570 0.218409 -0.498638 0.781983 0.373982 
0.094546 0.145070 0.282755 -0.565928 0.752473 0.336913 
0.157216 0.193704 0.306088 -0.590343 0.738940 0.324751 
-0.605749 -0.404056 0.239642 -0.814577 0.525581 -0.245416 
-0.315882 -0.195287 -0.092235 -0.684895 0.627178 -0.370900 
0.351072 0.352455 0.424826 -0.643274 0.709582 0.287561 
-0.328874 -0.128680 0.353510 -0.252365 0.855315 0.452492 
0.043505 -0.261133 -0.629815 -0.506782 0.835069 -0.214084 
-0.117831 -0.274153 0.739565 -0.379698 0.764926 0.520305 
0.147608 -0.168450 -0.554801 -0.494884 0.798676 -0.342354 
0.366650 0.047057 -0.395608 -0.426562 0.775291 -0.465800 
0.218945 0.004895 0.730016 -0.536968 0.651148 0.536350 
-0.528434 -0.529048 -0.844878 -0.273064 0.916128 0.293506 
-0.178233 -0.374933 0.850050 -0.370370 0.771004 0.518053 
-0.379681 -0.501404 -0.710663 -0.439751 0.896433 0.055027 
0.054418 0.198714 -0.060619 -0.422429 0.699647 -0.576236 
0.008942 -0.091920 -0.324730 -0.517825 0.732240 -0.442360 
0.285024 0.347682 0.205184 -0.641558 0.735646 0.217320 
0.039280 -0.297357 0.895495 -0.459070 0.679017 0.572880 
0.146343 0.285851 0.003718 -0.621403 0.748435 0.231739 
0.233029 0.138176 0.575742 -0.588795 0.679359 0.437940 
-0.128358 -0.120555 -0.231842 -0.582624 0.693681 -0.423503 
0.302956 0.360789 -0.038330 -0.264650 0.731854 -0.627973 
-0.521703 -0.513887 -0.225040 -0.661509 0.697448 -0.275629 
-0.657402 -0.461948 0.319940 -0.847932 0.495189 -0.189207 
-0.252022 -0.432700 -0.628998 -0.484984 0.873031 -0.051063 
-0.019360 -0.193513 -0.426622 -0.530249 0.762219 -0.371293 
-0.398535 -0.216834 0.492081 -0.189297 0.868700 0.457741 
0.059998 -0.005400 0.529395 -0.515241 0.726206 0.455139 
-0.407257 -0.487541 -0.848284 -0.325407 0.916049 0.234444 
-0.543258 -0.585490 -0.445320 -0.581385 0.792098 -0.185936 
-0.290332 -0.426620 -0.915070 -0.366571 0.912003 0.184052 
-0.270597 -0.368121 -0.398315 -0.598179 0.755970 -0.265879 
-0.181071 0.035882 -0.009065 -0.615074 0.639928 -0.460626 
0.057623 -0.087774 -0.355228 -0.506454 0.740073 -0.442488 
-0.323771 -0.123099 0.004006 -0.702159 0.602005 -0.380215 
0.143369 -0.235932 -0.925124 -0.462143 0.886762 -0.008830 
0.113385 -0.266972 0.919712 -0.481373 0.644148 0.594435 
0.095486 -0.043810 -0.332424 -0.493835 0.740143 -0.456416 
-0.153530 -0.336845 0.806134 -0.378394 0.765024 0.521111 
0.093367 -0.218735 0.849697 -0.480690 0.647040 0.591841 
-0.526837 -0.562022 -0.709316 -0.358590 0.914082 0.189389 
-0.224397 -0.349493 -0.431795 -0.584618 0.765165 -0.269710 
-0.596354 -0.580954 -0.745659 -0.314121 0.916742 0.246805 
0.324268 0.200340 0.625006 -0.603007 0.667759 0.436440 
0.058804 0.132916 0.234485 -0.558520 0.762369 0.326878 
-0.141606 -0.153523 0.526362 -0.387078 0.789179 0.476829 
0.484464 0.235217 -0.221214 -0.312788 0.756490 -0.574358 
-0.554570 -0.553762 -0.264722 -0.661008 0.698072 -0.275252 
0.580220 0.310752 -0.165744 -0.236750 0.741473 -0.627827 
-0.642675 -0.379490 0.684241 -0.854135 0.519260 -0.028686 
-0.603543 -0.531218 -0.917476 -0.272082 0.916075 0.294582 
0.535907 0.090122 -0.450157 -0.412039 0.798339 -0.439179 
0.324241 -0.076971 0.910509 -0.511846 0.564101 0.647923 
0.414829 0.221963 -0.208230 -0.323929 0.749501 -0.577337 
0.121961 -0.245990 -0.865340 -0.462260 0.886696 -0.009279 
0.393192 -0.070776 0.957328 -0.511970 0.562965 0.648813 
0.163453 -0.033848 0.710099 -0.520702 0.670679 0.528260 
0.194169 0.172271 -0.168962 -0.415478 0.708113 -0.570924 
-0.220266 -0.093673 -0.102337 -0.625683 0.647979 -0.434333 
0.577724 0.199120 -0.309326 -0.346686 0.772399 -0.532174 
-0.600975 -0.542951 -0.864060 -0.272087 0.916076 0.294573 
0.479119 0.359628 -0.081800 -0.234770 0.738176 -0.632439 
-0.266075 0.014902 0.107973 -0.423310 0.814553 0.396626 
-0.551808 -0.266142 0.321548 -0.831481 0.510950 -0.218101 
-0.202623 -0.361032 0.814973 -0.362030 0.777686 0.513945 
-0.301182 -0.408239 -0.433450 -0.594941 0.766422 -0.242163 
0.431922 -0.066181 -0.731911 -0.481125 0.857086 -0.184180 
0.001623 0.033483 0.360887 -0.510921 0.760431 0.400880 
0.386503 0.456056 0.050128 -0.657721 0.748655 0.083174 
-0.086233 -0.053127 0.404925 -0.453006 0.780954 0.429996 
0.364650 0.260745 0.618641 -0.609040 0.669847 0.424705 
0.253952 0.297643 0.276667 -0.631088 0.729008 0.265095 
-0.209875 -0.415287 -0.673354 -0.481555 0.875081 -0.048355 
-0.285119 -0.417129 -0.489843 -0.568964 0.793945 -0.214315 
-0.525752 -0.337938 0.727504 0.006222 0.927819 0.372979 
-0.522399 -0.416460 -0.027146 -0.745060 0.595224 -0.300988 
-0.127189 -0.033539 -0.140610 -0.572983 0.674207 -0.465977 
0.135881 0.118991 -0.189413 -0.442734 0.711576 -0.545569 
0.036790 -0.281219 -0.944571 -0.427876 0.899777 0.085579 
0.096071 0.056782 -0.229347 -0.475996 0.714498 -0.512758 
0.616956 0.092788 -0.537315 -0.442877 0.820797 -0.360766 
-0.428557 -0.269453 0.001093 -0.732160 0.599261 -0.323772 
0.402112 -0.066501 -0.659261 -0.479817 0.850760 -0.214438 
-0.081177 -0.350664 -0.803284 -0.439533 0.896418 0.056966 
0.391881 0.467786 0.106679 -0.657735 0.748666 0.082971 
-0.121357 -0.052839 0.364000 -0.445728 0.789539 0.421847 
0.476239 0.404189 -0.038084 -0.217267 0.738501 -0.638288 
0.191619 0.309132 0.016951 -0.625367 0.746787 0.226330 
-0.133549 0.013106 -0.089253 -0.573016 0.659361 -0.486720 
-0.312379 -0.326337 0.709442 -0.189069 0.866859 0.461313 
0.280625 0.171332 0.601046 -0.602744 0.668395 0.435829 
-0.084615 -0.240238 0.716572 -0.411660 0.747710 0.521023 
0.271500 0.004128 0.788072 -0.527731 0.623005 0.577378 
0.177511 -0.264790 0.965527 -0.495342 0.616084 0.612435 
0.461642 0.024335 -0.504725 -0.439080 0.807416 -0.394067 
-0.440078 -0.177493 0.147860 -0.769454 0.563630 -0.300435 
0.096500 -0.260531 -0.817940 -0.462397 0.886617 -0.009954 
-0.616836 -0.341484 0.471701 -0.870522 0.476833 -0.121749 
-0.270785 -0.447749 -0.697777 -0.453341 0.891114 0.019947 
0.440762 -0.012920 0.945727 -0.512146 0.562504 0.649073 
0.267039 -0.065832 -0.489924 -0.465935 0.785134 -0.408006 
0.086098 0.185049 0.155052 -0.567310 0.765155 0.304463 
0.497078 0.539374 0.100512 -0.647470 0.760511 -0.049049 
-0.032226 -0.321792 -0.707642 -0.477498 0.875757 -0.071030 
0.308640 -0.145897 -0.829260 -0.482038 0.865666 -0.135134 
-0.297477 -0.447663 -0.834744 -0.366850 0.912063 0.183198 
-0.401214 -0.143925 0.116162 -0.734011 0.583491 -0.347515 
0.251981 -0.132506 0.901313 -0.499220 0.609234 0.616128 
-0.365069 -0.130092 0.062579 -0.727796 0.587391 -0.353956 
-0.309541 -0.361583 -0.324435 -0.625572 0.719821 -0.300862 
0.051282 -0.130517 0.705944 -0.478296 0.700475 0.529688 
0.087921 0.112823 0.348518 -0.560593 0.743860 0.363880 
0.179995 -0.190925 -0.656324 -0.492717 0.843948 -0.212091 
0.354992 -0.119094 -0.808203 -0.482124 0.865419 -0.136404 
0.223678 0.078736 0.644910 -0.564783 0.668246 0.484218 
-0.100176 -0.339482 -0.614580 -0.513765 0.833313 -0.204044 
0.213297 0.036970 0.684545 -0.550575 0.662289 0.508174 
-0.232078 -0.311519 0.720695 -0.282295 0.824911 0.489726 
-0.070061 -0.294053 0.805705 -0.416211 0.734263 0.536308 
-0.301408 -0.271771 0.618251 -0.201080 0.863866 0.461846 
-0.008614 -0.240638 0.788140 -0.449989 0.697174 0.558084 
0.225296 -0.230757 0.971953 -0.497799 0.610801 0.615726 
0.052078 0.064985 0.384648 -0.529685 0.749746 0.396629 
-0.400765 -0.325651 -0.132355 -0.706166 0.629083 -0.324938 
-0.316446 -0.213995 0.507020 -0.205307 0.864241 0.459278 
0.304649 -0.077572 -0.543850 -0.464258 0.807894 -0.363003 
-0.165698 0.077601 0.043553 -0.531975 0.786050 0.314848 
0.352222 0.202631 -0.205633 -0.351667 0.736737 -0.577537 
-0.600899 -0.346934 0.359458 -0.860552 0.483905 -0.159013 
-0.041999 -0.126854 -0.319956 -0.542295 0.725386 -0.423948 
0.153703 0.082632 -0.236375 -0.449311 0.723032 -0.524733 
-0.321944 -0.423461 -0.978235 -0.345539 0.914423 0.210791 
-0.138678 -0.379506 -0.821432 -0.423922 0.901002 0.092120 
0.344356 0.084420 0.780632 -0.558109 0.625345 0.545397 
0.347259 0.284861 0.541920 -0.631344 0.680360 0.372175 
-0.060288 -0.173400 -0.358900 -0.550030 0.735242 -0.396089 
-0.539840 -0.273271 0.266022 -0.818835 0.521765 -0.239313 
-0.187542 -0.186623 0.537813 -0.369377 0.795004 0.481175 
0.297789 0.308811 0.381589 -0.642343 0.710153 0.288233 
0.147857 -0.231749 -0.774576 -0.476486 0.876312 -0.070982 
-0.367488 -0.169039 0.020772 -0.725620 0.591264 -0.351969 
0.653668 0.267328 -0.253623 -0.305184 0.759390 -0.574621 
0.466097 0.532287 0.142396 -0.647513 0.760492 -0.048766 
-0.025595 -0.322351 -0.827252 -0.439688 0.896353 0.056801 
-0.104246 -0.348275 -0.920340 -0.398377 0.906915 0.137115 
-0.018559 -0.277089 0.824771 -0.447375 0.696358 0.561196 
-0.479044 -0.554530 -0.545636 -0.517918 0.851031 -0.086641 
0.364927 0.168875 0.717537 -0.580707 0.651882 0.487678 
0.516215 0.327730 -0.125904 -0.235357 0.738471 -0.631877 
0.016329 -0.125469 0.656174 -0.469331 0.722812 0.507219 
0.265381 0.041239 -0.342071 -0.446122 0.752628 -0.484279 
-0.081833 -0.119091 -0.274656 -0.556999 0.712237 -0.427165 
0.169561 0.003748 0.671863 -0.535974 0.674392 0.507866 
0.226689 0.225778 0.400213 -0.616819 0.711403 0.336807 
-0.650706 -0.467028 0.230254 -0.814152 0.525951 -0.246033 
-0.528151 -0.580386 -0.568505 -0.472650 0.881245 -0.003080 
-0.607575 -0.377716 0.317753 -0.847985 0.495185 -0.188981 
-0.396861 -0.500087 -0.780914 -0.359523 0.913820 0.188880 
0.071419 -0.271754 -0.875693 -0.440289 0.896134 0.055589 
0.169250 -0.219658 -0.870378 -0.464387 0.885482 -0.016315 
-0.462547 -0.170142 0.240522 -0.785353 0.551565 -0.281063 
-0.444957 -0.249972 0.059521 -0.760042 0.574438 -0.303904 
-0.312319 -0.236135 -0.148085 -0.673522 0.645214 -0.360648 
0.212989 0.163786 0.500457 -0.595054 0.699275 0.396138 
0.577819 0.096735 -0.482424 -0.411729 0.798840 -0.438559 
0.440370 0.507986 0.118481 -0.649045 0.759836 -0.037275 
0.262379 0.121380 -0.251370 -0.416884 0.736050 -0.533327 
0.480904 -0.015409 -0.630875 -0.471663 0.841945 -0.262034 
0.447770 0.191210 -0.257025 -0.352291 0.761062 -0.544679 
-0.253428 -0.029373 0.209326 -0.411207 0.816549 0.405162 
0.311687 0.276878 0.484318 -0.637405 0.692035 0.338824 
-0.508950 -0.312617 0.677133 -0.021568 0.918918 0.393859 
-0.042108 -0.000272 0.362075 -0.494720 0.767414 0.407833 
0.307785 0.381007 0.147257 -0.646272 0.740398 0.184778 
-0.358786 -0.201544 -0.032994 -0.710944 0.610389 -0.349262 
0.313124 0.139648 0.686787 -0.580704 0.652456 0.486912 
0.226953 -0.191762 0.936381 -0.498075 0.610319 0.615980 
0.433925 0.036691 0.901839 -0.512316 0.562754 0.648723 
-0.572475 -0.546477 -0.826658 -0.272541 0.916102 0.294073 
-0.047238 -0.236887 -0.463739 -0.530954 0.777405 -0.337239 
0.100519 -0.146922 0.776109 -0.484384 0.671153 0.561182 
0.578835 0.155619 -0.376851 -0.367982 0.782907 -0.501644 
-0.161143 -0.215210 0.612951 -0.370954 0.787227 0.492613 
0.011446 0.197972 0.001889 -0.554337 0.776221 0.300319 
0.461667 0.021681 0.938207 -0.512192 0.562473 0.649064 
0.427470 0.496231 0.152823 -0.656784 0.753714 0.023440 
0.401310 0.433861 0.344639 -0.654837 0.725505 0.211732 
0.393840 0.457004 0.207877 -0.659688 0.741219 0.124123 
0.263174 -0.168775 -0.805562 -0.477818 0.873289 -0.095161 
0.282164 0.086416 -0.299713 -0.428398 0.744970 -0.511365 
0.346196 0.190651 0.673045 -0.584541 0.655818 0.477718 
-0.237101 -0.380692 -0.481506 -0.563749 0.792505 -0.232642 
-0.540949 -0.355340 0.777381 0.044928 0.939186 0.340458 
0.397605 -0.090517 -0.767659 -0.482176 0.864983 -0.138963 
0.362894 -0.122104 0.981054 -0.511766 0.563653 0.648375 
-0.027254 -0.265049 -0.539569 -0.522380 0.804269 -0.283321 
0.080853 -0.202094 -0.541737 -0.505767 0.795483 -0.333776 
0.016119 -0.205121 0.764213 -0.455290 0.696143 0.555064 
0.235256 -0.108001 -0.532709 -0.487543 0.795227 -0.360438 
0.181805 -0.080501 0.784132 -0.505749 0.648008 0.569477 
-0.408360 -0.271025 0.588892 -0.122405 0.886931 0.445387 
-0.571675 -0.545742 -0.198328 -0.662021 0.696881 -0.275836 
0.626237 0.166082 -0.389782 -0.367919 0.783226 -0.501191 
0.290577 0.340348 0.261576 -0.644962 0.728332 0.231424 
-0.365343 -0.240893 0.536579 -0.189652 0.868291 0.458370 
0.266549 -0.169829 -0.870592 -0.477672 0.873471 -0.094223 
0.195531 0.259388 0.215269 -0.612390 0.742267 0.272062 
-0.501608 -0.360601 0.013797 -0.759598 0.577640 -0.298902 
-0.428880 -0.142724 0.193968 -0.769810 0.563171 -0.300385 
-0.585897 -0.343259 0.771900 0.045232 0.939265 0.340200 
0.028893 -0.242510 -0.561851 -0.515752 0.807621 -0.285915 
0.264242 -0.161573 -0.735655 -0.482399 0.865068 -0.137653 
-0.443610 -0.344940 -0.081199 -0.720379 0.616539 -0.317701 
0.219019 0.252758 -0.107065 -0.340912 0.712011 -0.613856 
-0.633734 -0.380157 0.481162 -0.870551 0.476850 -0.121468 
-0.041259 0.054453 0.244032 -0.511091 0.774180 0.373404 
-0.220559 -0.235878 -0.266506 -0.617255 0.695266 -0.368241 
-0.059214 -0.059838 0.457063 -0.460639 0.768927 0.443354 
0.363797 0.379362 -0.034374 -0.253823 0.734059 -0.629866 
0.290659 0.278451 0.435502 -0.637866 0.699469 0.322288 
