0.493958 0.138517 -0.371795 -0.205621 0.0558957 0.977034
-0.141154 -0.321517 0.319737 0.771322 0.0467431 0.634726
-0.0442504 -0.294872 -0.111891 0 1 0
0.436918 -0.165005 0.320513 0 0 1
0.380175 0.0443067 0.33667 0.980429 0.196859 -0.00255888
0.377595 0.294872 0.140543 0 1 0
-0.125315 -0.193705 -0.333333 0 0 1
-0.5 -0.0869573 0.0480552 1 0 0
0.378997 -0.22891 -0.371795 0 0 1
0.354105 -0.146693 -0.371795 0 0 1
0.5 0.147488 0.00961971 1 0 0
0.5 -0.204361 -0.171361 1 0 0
0.0728107 0.371795 -0.0687319 0 1 0
-0.257624 0.371795 -0.240405 0 1 0
-0.35441 -0.0803842 0.371795 0 0 1
-0.15047 0.371795 0.310948 0 1 0
-0.271011 -0.0164509 -0.230579 0.940984 0.338426 -0.00399285
0.130173 -0.294872 0.243419 0 1 0
0.338239 0.294872 -0.0589089 0 1 0
-0.324763 0.371795 0.212173 0 1 0
-0.128734 0.0268222 -0.333333 0 0 1
0.257327 -0.0276276 -0.2456 -0.674109 0.738619 0.00438966
0.0177984 -0.232859 0.371795 0 0 1
0.5 -0.212625 0.141494 1 0 0
0.5 -0.175583 0.174171 1 0 0
0.481037 0.112153 -0.371795 0 0 1
0.120349 0.371795 0.191353 0 1 0
0.0904223 -0.123949 -0.333333 0 0 1
-0.25797 0.203939 0.371795 0 0 1
-0.490672 -0.294872 0.181725 0.0372716 0.999246 0.0108921
0.293036 -0.249546 -0.371795 0 0 1
0.0630405 -0.206879 0.371795 0 0 1
0.120208 0.371795 -0.250515 0 1 0
0.448718 -0.32801 -0.0234189 1 0 0
0.192371 -0.000725418 -0.276296 0.997566 0.0694172 0.00651773
-0.5 0.28591 -0.110857 1 0 0
0.482446 -0.294872 -0.348864 0 1 0
0.362562 -0.228538 0.320513 0 0 1
-0.412404 -0.3317 -0.371795 0 0 1
0.5 -0.216154 -0.208561 1 0 0
0.5 0.106703 -0.369652 -0.403921 -0.0106445 0.914732
-0.18771 0.000502485 -0.0349636 0.85005 0.00835855 0.526635
0.5 -0.026117 -0.158108 1 0 0
-0.0152489 0.258139 0.320513 -0.120047 0.295598 0.94774
-0.5 0.0357626 -0.195875 1 0 0
0.5 0.0784381 -0.272496 1 0 0
0.428809 -0.300408 -0.371795 0 0 1
0.112221 -0.115535 -0.333333 0 0 1
-0.027915 -0.202725 0.344411 0.164557 0.986368 0
-0.5 -0.079096 -0.0471508 1 0 0
-0.142732 0.217499 -0.333333 0 0 1
0.5 0.0845916 -0.118251 1 0 0
0.141109 -0.311078 0.160692 1 0 0
0.0632903 -0.256282 0.356504 0 1 0
-0.5 -0.108574 -0.205104 1 0 0
0.5 -0.0577222 -0.0594111 1 0 0
-0.187314 0.00153818 -0.286118 0.999631 0.0265633 0.00565473
0.111352 -0.294872 0.0796998 0 1 0
0.5 -0.160056 0.174318 1 0 0
0.5 -0.119439 0.203314 1 0 0
-0.214913 0.371795 -0.0995839 0 1 0
-0.5 -0.15797 0.214313 1 0 0
0.5 -0.0915705 -0.0229109 1 0 0
-0.392617 -0.371795 -0.200031 0 1 0
0.0306173 -0.294872 -0.0854263 0 1 0
-0.0962685 -0.165657 -0.333333 0 0 1
0.0333589 -0.294872 -0.0221291 0 1 0
0.409869 -0.371795 0.101649 0 1 0
-0.189586 -0.0770181 0.355256 0.916453 0.400143 0
-0.496087 -0.158275 -0.371795 0.358102 -0.156257 0.920514
0.205097 -0.0285131 -0.155049 0.678654 0.734206 0.0192397
0.448718 -0.301811 -0.183837 0.972142 -0.232676 0.0283248
0.383389 0.294872 0.145 0 1 0
0.484124 0.294872 0.303218 0 1 0
0.364092 -0.0453731 0.371795 0 0 1
-0.0505607 0.0668617 0.320513 0 0 1
0.3269 -0.371795 0.251622 0 1 0
-0.204248 -0.109959 0.371795 0 0 1
-0.126229 -0.256282 0.342985 0.0152893 0.999883 0.000291404
-0.274327 0.00036383 -0.324213 0.993677 -0.0132211 -0.111498
-0.48845 0.371795 0.238215 0 1 0
0.145045 0.144463 0.331603 0.732762 0.680467 -0.0049526
-0.496014 0.371795 -0.0165241 -0.505967 0.861816 -0.0356344
0.5 -0.1515 -0.167842 1 0 0
0.246408 0.226712 0.323325 0.542724 0.595183 0.592628
-0.5 0.00372684 -0.0435963 1 0 0
0.0297231 0.371795 -0.313057 0 1 0
-0.5 0.294389 0.251263 1 0 0
0.5 0.0766798 -0.0915707 1 0 0
0.5 -0.224192 0.217142 1 0 0
-0.289441 -0.371795 0.0703754 0 1 0
0.250111 -0.303081 0.320513 0 0 1
-0.0768953 0.371795 0.0157028 0 1 0
0.366351 0.294872 -0.144358 0 1 0
-0.5 -0.16956 0.114885 1 0 0
0.280839 0.294872 0.185605 0 1 0
-0.5 -0.0501641 -0.35084 1 0 0
0.5 0.102073 0.223078 1 0 0
0.403084 -0.173595 -0.371795 0 0 1
0.179854 -0.234202 -0.371795 0.022713 -0.280843 0.959485
0.5 0.173323 0.129075 1 0 0
0.448718 -0.329039 0.087514 1 0 0
0.139734 -0.294872 0.257956 0.609151 0.792988 -0.0102715
0.0569938 0.149086 -0.333333 0 0 1
-0.5 0.0392612 0.0909745 1 0 0
-0.0344359 0.0276191 -0.333333 0 0 1
-0.310043 -0.175752 0.371795 -0.251975 -0.302273 0.919315
0.096882 -0.228273 -0.333333 0.14097 -0.597251 0.789569
-0.0604285 -0.294872 0.131195 0 1 0
-0.373033 -0.371795 -0.0255167 0 1 0
0.5 -0.209395 0.0419337 1 0 0
-0.5 0.0206133 -0.0230557 1 0 0
0.450799 0.294872 -0.0332706 0 1 0
-0.0726983 -0.294872 0.252701 0 1 0
-0.214786 0.175736 -0.333333 0 0 1
-0.5 0.0541183 -0.289713 1 0 0
-0.198774 0.209464 -0.333333 0 0 1
0.5 0.22301 -0.105277 1 0 0
-0.235075 0.0432131 -0.0887239 -0.0835959 0.996459 0.00899014
-0.0120624 0.256282 0.343237 0 1 0
-0.5 -0.241794 -0.270405 1 0 0
-0.300514 -0.0964914 0.371795 0 0 1
-0.402111 0.371795 -0.240937 0 1 0
-0.0426276 -0.148842 -0.333333 0 0 1
-0.37105 0.164813 0.320513 0 0 1
0.0676827 -0.294872 -0.088373 0 1 0
-0.212717 -0.371795 0.26532 0 1 0
-0.448718 -0.319662 0.189519 1 0 0
-0.381864 -0.192797 0.320513 0 0 1
0.172483 0.294872 0.22608 0 1 0
-0.124253 0.162503 0.335669 -0.614222 0.789133 0
0.141109 -0.360473 0.140276 1 0 0
-0.5 -0.177477 -0.162925 1 0 0
-0.381935 -0.308779 0.320513 0 0 1
0.268705 0.294872 -0.0919938 0 1 0
0.5 0.155903 0.129606 1 0 0
0.278024 -0.22247 -0.35213 -0.459205 0.888315 -0.00522657
0.3246 0.294872 0.0890448 0 1 0
0.5 -0.198482 0.286951 1 0 0
0.5 -0.126481 0.2284 1 0 0
-0.5 -0.190004 0.232038 1 0 0
-0.471482 0.371795 -0.0158507 0 1 0
-0.443606 -0.316549 -0.371795 0.26287 -0.0862546 0.960968
0.231627 0.212283 -0.333333 0 0 1
0.239812 -0.256326 0.320513 0 0 1
0.396689 -0.06797 -0.371795 0 0 1
-0.5 0.342811 0.213472 1 0 0
0.479708 -0.147461 0.320513 0 0 1
-0.142471 -0.0360079 0.320513 0 0 1
0.0170178 0.371795 0.297339 0 1 0
-0.45222 0.103837 -0.371795 0 0 1
0.141026 0.310056 -0.163593 1 0 0
-0.286626 0.21387 0.320513 -0.0224186 0.0236342 0.999469
0.141109 -0.308329 0.129175 1 0 0
-0.274127 -0.00265666 -0.298524 0.994022 0.106476 -0.0241269
-0.0914892 -0.0723781 -0.333333 0 0 1
-0.491303 0.181755 0.320513 -0.0999517 0.0218761 0.994752
-0.431244 -0.105335 0.320513 0 0 1
0.16184 0.294872 -0.151976 0 1 0
-0.466315 0.355226 0.320513 0 0 1
-0.320513 0.0326847 -0.370905 -0.668464 0.00254063 0.74374
-0.161714 0.296232 -0.371795 0 0 1
0.403198 0.0858838 0.320513 0 0 1
-0.251498 -0.038247 -0.216782 0.476601 0.879036 -0.0121258
0.0327434 -0.294872 -0.195034 0 1 0
-0.302269 0.359499 0.320513 0 0 1
0.427173 -0.371795 -0.0816028 0 1 0
-0.166806 0.162714 0.371795 0 0 1
0.196691 0.0175793 -0.207991 0.887821 -0.460088 -0.00964965
0.0731125 -0.0413361 -0.333333 0 0 1
-0.025536 -0.0464905 -0.333333 0 0 1
-0.448718 -0.350608 0.302878 1 0 0
-0.21318 0.371795 -0.251529 0 1 0
-0.34912 -0.371795 -0.343774 0 1 0
0.0233329 -0.259634 -0.371795 0 0 1
0.338238 -0.371795 0.141961 0 1 0
-0.0677805 -0.17058 -0.333333 0 0 1
0.5 0.259956 -0.0802742 1 0 0
0.5 -0.252877 0.205634 1 0 0
-0.199913 -0.0305546 -0.218193 -0.698516 0.715545 0.00837694
-0.0918548 -0.160382 -0.333333 0 0 1
0.00795299 -0.294872 -0.0695624 0 1 0
0.5 0.0929506 0.0949901 1 0 0
0.200947 0.0397475 0.329462 0.97155 0.212966 -0.103618
0.141026 0.369946 0.104216 0.736147 0.6716 0.0839099
-0.5 -0.1964 -0.0185106 1 0 0
0.5 -0.194964 -0.326066 1 0 0
0.055887 -0.247036 -0.371795 0 0 1
0.244192 -0.0360173 -0.168482 -0.308037 0.951348 -0.00709785
-0.5 0.21443 0.25169 1 0 0
0.235091 0.050347 0.371795 0 0 1
-0.373794 -0.011707 0.371795 -0.130418 0.0164754 0.991322
0.481261 0.2455 0.320513 0 0 1
-0.201827 0.0324689 -0.216559 0.669209 0.743011 0.00971919
0.198469 -0.0206703 -0.204848 0.849602 0.527415 -0.00296838
0.345322 0.26972 0.320513 0 0 1
-0.5 -0.0479023 0.314868 0.938522 -0.0617153 -0.339657
0.467027 -0.294872 0.158893 0 1 0
-0.5 -0.151549 -0.311439 1 0 0
0.148781 0.294872 -0.00615371 0.140062 0.989891 -0.0223443
-0.427706 -0.363144 0.320513 0.0468209 -0.137219 0.989434
-0.154454 0.0496453 0.320513 0 0 1
0.300071 -0.189648 0.362255 -0.690745 0.723082 0.00489809
0.219325 0.0248862 0.371795 0 0 1
0.31635 -0.138926 -0.333333 0.533489 0.069642 0.842935
-0.448718 -0.32014 -0.000109025 1 0 0
0.483226 -0.173204 0.320513 0 0 1
-0.335871 0.371795 -0.272542 0 1 0
-0.5 -0.280113 0.0375689 1 0 0
0.261131 0.285639 0.320513 0.0167068 0.0803464 0.996627
-0.185484 -0.371795 0.215641 0 1 0
-0.0787492 -0.294872 -0.135334 0 1 0
-0.183795 -0.324712 0.320513 0 0 1
0.0645616 -0.0534227 -0.333333 0 0 1
-0.0964677 -0.294872 -0.10582 0 1 0
-0.167402 0.0416537 0.320513 0 0 1
-0.141154 -0.343272 -0.0176419 1 0 0
0.13258 -0.205176 0.371795 0 0 1
-0.5 -0.227258 -0.0173377 1 0 0
-0.0989754 0.362325 -0.371795 -0.0163722 -0.0381728 0.999137
-0.467347 0.310435 -0.371795 0 0 1
-0.0870849 0.339606 0.320513 0 0 1
-0.36813 0.371795 0.0664269 0 1 0
-0.5 0.152106 -0.0939531 1 0 0
0.5 -0.294322 -0.347212 -0.577904 0.816099 -0.00301891
-0.202238 -0.0179376 -0.0293671 0.446458 -0.253401 0.858174
-0.5 -0.0662034 -0.310059 1 0 0
0.5 0.140568 -0.0463473 1 0 0
0.5 -0.221119 -0.355474 1 0 0
-0.189715 -0.110856 0.371795 0 0 1
0.347289 -0.371795 0.0945111 0 1 0
0.5 -0.136221 0.103263 1 0 0
0.258815 0.203138 -0.333333 0 0 1
0.5 0.201866 -0.274558 1 0 0
0.342424 0.294872 0.0216446 0 1 0
0.065281 0.371795 0.0994283 0 1 0
-0.047101 -0.097291 0.320513 0 0 1
0.447938 -0.371795 -0.272422 -0.612011 0.790248 -0.0308435
0.261929 0.294872 -0.139743 0 1 0
0.0712424 0.0244403 0.320513 0 0 1
-0.5 -0.144112 -0.169059 1 0 0
0.320513 0.0790455 -0.362158 0.99821 0.000426897 0.0598065
0.248979 0.0337847 -0.308471 0.425562 0.90482 -0.0140743
-0.5 -0.132849 0.0863073 1 0 0
-0.5 -0.017912 -0.221888 1 0 0
-0.5 0.0209357 0.103322 1 0 0
-0.214533 0.230897 -0.369441 -0.00704533 0.985169 0.171444
0.29239 -0.227711 -0.371795 0 0 1
-0.202836 -0.0292084 0.350513 0.99226 0.124031 -0.00609577
0.448718 -0.327649 -0.35473 1 0 0
0.392799 -0.371795 0.246431 0 1 0
0.00480701 -0.294872 0.247611 0 1 0
-0.5 -0.255379 0.279383 1 0 0
0.5 0.177968 -0.249669 1 0 0
-0.261841 0.121841 -0.333333 0 0 1
-0.31665 0.19033 -0.371795 -0.286521 0.217468 0.933067
-0.257724 0.0341366 -0.141443 -0.584947 0.810998 -0.0109404
-0.0289121 0.297988 -0.371795 0 0 1
0.5 0.288918 0.0147592 0.977792 0.207639 -0.0284488
-0.125662 0.29701 -0.371795 0 0 1
-0.0733098 -0.294872 -0.15134 0 1 0
0.5 -0.035919 -0.249315 1 0 0
-0.0784898 0.371795 -0.299798 0 1 0
-0.39235 0.371795 0.18913 0 1 0
0.5 -0.197689 -0.0462998 1 0 0
-0.472882 -0.294872 -0.235501 0 1 0
0.355089 -0.23945 0.320513 0 0 1
-0.5 -0.0647271 0.316054 0.949867 0.170355 -0.262166
0.141026 0.314105 0.0226789 1 0 0
0.485464 0.294872 -0.164242 0 1 0
-0.5 0.103874 0.238261 1 0 0
0.091755 0.371795 -0.309019 0 1 0
0.248098 0.294872 0.114937 0 1 0
-0.5 0.289103 -0.14696 1 0 0
-0.38737 0.0889278 0.320513 0 0 1
0.172046 -0.16284 0.371795 0 0 1
-0.0228947 0.268024 -0.371795 0 0 1
0.493984 -0.294872 -0.0118596 -0.199471 0.973829 0.108943
0.397625 -0.371795 0.00627456 0 1 0
-0.5 -0.261351 0.0881194 1 0 0
-0.320513 0.1065 -0.354327 1 0 0
-0.20536 0.315594 -0.371795 0 0 1
-0.105153 -0.0734128 -0.333333 0 0 1
-0.0458529 0.230897 -0.363064 0.0054344 0.999588 0.0282008
0.369346 0.294872 0.0910478 0 1 0
0.04734 -0.26964 -0.371795 0 0 1
0.5 -0.134528 -0.139957 1 0 0
-0.492491 -0.294872 0.178119 0.0443759 0.999002 -0.0050772
0.5 0.20035 0.0125305 1 0 0
0.244489 0.230818 -0.346915 0.0574515 0.998324 -0.00697029
0.183977 -0.371795 -0.00528504 0 1 0
0.223477 0.114039 -0.333333 0 0 1
-0.330967 -0.371795 -0.255392 0 1 0
0.0500101 -0.294872 0.0773853 0 1 0
0.293464 0.0771861 0.371795 0 0 1
0.263676 -0.0198042 -0.312898 0.853934 -0.520262 -0.0111495
-0.36552 -0.371795 -0.146588 0 1 0
0.00644992 -0.0954994 0.320513 0 0 1
-0.443855 0.371795 0.0937585 0 1 0
-0.5 0.17239 0.0580951 1 0 0
0.252605 0.294872 -0.338642 0 1 0
0.5 0.280418 -0.0529521 1 0 0
0.5 -0.276514 -0.272825 1 0 0
-0.285861 0.261246 -0.371795 0 0 1
0.474575 -0.294872 -0.106033 0 1 0
0.5 -0.155788 -0.0159341 1 0 0
-0.257295 0.0344368 -0.216713 -0.642462 0.765999 -0.0220916
-0.5 -0.212308 0.043659 1 0 0
0.442758 -0.371795 -0.024204 -0.638436 0.759122 -0.127018
-0.5 0.328633 -0.320841 1 0 0
-0.5 0.32784 -0.257624 1 0 0
0.124294 -0.294872 -0.0838659 0 1 0
-0.426102 -0.10486 0.320513 0 0 1
-0.5 0.239216 -0.305233 1 0 0
0.320513 0.0983031 -0.341733 0.993724 -0.0120225 0.111214
0.5 0.035662 -0.333681 1 0 0
-0.126063 -0.0808514 -0.333333 0 0 1
-0.216103 -0.157153 -0.333333 0 0 1
0.356866 -0.146733 0.320513 0 0 1
-0.390333 -0.371795 -0.0839696 0 1 0
-0.369717 -0.066643 0.371795 -0.230651 -0.071606 0.970398
0.28265 0.294872 -0.216367 0 1 0
-0.491272 0.181964 -0.371795 0.0381119 -0.0115778 0.999206
-0.5 0.0930429 -0.0868109 1 0 0
0.149715 -0.254743 0.335982 -0.071334 0.997452 0
0.0126169 0.371795 0.258062 0 1 0
0.5 -0.200188 0.0667256 1 0 0
-0.5 -0.0232177 -0.311756 1 0 0
-0.112944 -0.294872 -0.34847 0 1 0
-0.312595 0.0834741 -0.333333 -0.232225 -0.00204772 0.97266
0.311601 0.183117 0.320513 0.254142 0.184358 0.949433
-0.243655 0.230891 -0.340056 -0.0880706 0.970226 0.225621
-0.255137 0.371795 0.18726 0 1 0
-0.196757 0.371795 0.210484 0 1 0
0.494008 -0.294872 0.177693 -0.214993 0.975417 0.0483661
-0.5 0.100077 0.124326 1 0 0
0.166051 0.294872 -0.342598 0 1 0
0.141026 0.304514 -0.0895815 1 0 0
-0.194589 0.157111 0.371795 0 0 1
-0.5 0.0493749 0.191402 1 0 0
-0.397778 -0.371795 -0.00823451 0 1 0
0.5 0.28016 0.26301 1 0 0
0.5 -0.180175 -0.20125 1 0 0
0.141109 -0.368528 -0.237095 0.907893 0.418188 0.0291379
-0.5 -0.232536 -0.02893 1 0 0
-0.0889282 -0.0393448 0.320513 0 0 1
0.5 -0.0136527 0.21926 1 0 0
-0.121615 -0.294872 0.0493026 0 1 0
0.0173013 0.371795 0.142842 0 1 0
-0.190643 0.0194557 0.320513 0 0 1
0.5 -0.0482365 -0.280523 1 0 0
0.224847 0.217906 -0.333333 0 0 1
-0.5 0.0219302 -0.245802 1 0 0
0.0570885 -0.294872 -0.316922 0 1 0
0.448718 -0.340861 0.048032 1 0 0
-0.364664 0.371795 -0.28032 0 1 0
-0.5 -0.081935 -0.126236 1 0 0
0.192357 -0.00055862 -0.206465 0.999887 -0.015011 -0.00113575
0.401178 0.240663 -0.371795 0 0 1
-0.487154 0.252478 -0.371795 0 0 1
-0.429727 -0.237652 -0.371795 0 0 1
-0.146678 0.360222 0.320513 0.00165805 0.127879 0.991788
0.5 0.223239 -0.00811989 1 0 0
0.160582 -0.371795 0.036662 0 1 0
-0.449131 -0.294872 0.082851 0.387093 0.918194 -0.0841412
0.228084 -0.147259 -0.333333 0 0 1
0.063782 0.371795 0.238979 0 1 0
-0.132584 0.183331 -0.333333 0 0 1
-0.195823 -0.0257993 -0.0746441 0.815232 -0.579115 -0.00479102
0.420047 -0.211712 -0.371795 0 0 1
-0.219825 0.230897 -0.340776 -0.0234802 0.987183 0.157853
0.238645 -0.371795 -0.10376 0 1 0
-0.49719 0.371795 0.195052 -0.470635 0.876539 0.100913
-0.0623598 0.352973 -0.371795 0 0 1
-0.141154 -0.33715 0.27035 1 0 0
0.133815 -0.14247 0.320513 -0.0347065 0.0454253 0.998365
-0.288002 -0.371795 0.0371042 0 1 0
0.0135236 0.14109 0.320513 0 0 1
-0.128563 0.371795 -0.212533 0 1 0
0.326571 -0.371795 0.258813 0 1 0
0.331771 0.239728 -0.371795 0 0 1
0.320513 0.119259 -0.34079 0.964876 -0.0725076 0.252502
0.5 0.128569 0.126089 1 0 0
-0.0865253 -0.294872 0.0790495 0 1 0
0.0253651 -0.294872 -0.12957 0 1 0
0.337046 -0.34276 0.320513 0 0 1
0.114056 0.371795 0.194958 0 1 0
0.5 0.226865 -0.0623624 1 0 0
0.139156 -0.294872 0.255325 0.797001 0.603971 0.00290341
0.5 -0.114444 -0.33114 1 0 0
-0.5 -0.225588 -9.95882e-005 1 0 0
0.5 -0.0343719 -0.221682 1 0 0
-0.448718 -0.302842 -0.211461 0.99552 0.0939823 0.0103403
-0.5 -0.275544 -0.332079 1 0 0
0.5 -0.0847786 0.0589353 1 0 0
0.448718 -0.340659 0.0267844 1 0 0
0.5 0.0121934 -0.0595305 1 0 0
-0.119234 0.226871 0.371795 0 0 1
-0.353395 0.371795 -0.029628 0 1 0
-0.252745 -0.285824 -0.371795 0 0 1
0.102909 0.230897 -0.350301 0 1 0
0.206294 -0.29174 0.320513 0 0 1
0.5 -0.114561 0.260722 1 0 0
-0.0431563 0.337194 -0.371795 0 0 1
-0.354156 -0.371795 0.189001 0 1 0
0.208528 -0.0312008 -0.319419 0.63381 0.773335 0.0154017
-0.134607 -0.294872 -0.0515436 -0.310247 0.948192 -0.0684059
-0.00324546 0.300025 0.320513 0 0 1
-0.5 0.342298 -0.0931701 1 0 0
0.0147989 0.128686 0.320513 0 0 1
-0.496449 0.364582 -0.371795 0.42491 0.00869037 0.905194
0.5 -0.222961 -0.361733 0.998598 -0.000221005 -0.0529354
-0.5 -0.250361 -0.308813 1 0 0
0.233028 -0.0382638 -0.275723 -0.0967111 0.995282 -0.00775952
0.5 0.10686 -0.0553684 1 0 0
0.17874 0.294872 0.10849 0 1 0
-0.34892 0.371795 0.188975 0 1 0
-0.209459 -0.248119 0.320513 -0.229796 -0.330703 0.91533
-0.448718 -0.337099 0.15801 1 0 0
-0.228504 -0.00618159 0.371795 0 0 1
-0.431138 -0.371795 -0.142773 0 1 0
-0.120302 -0.0914407 0.320513 0 0 1
0.194336 -0.0120688 -0.00668524 0.937174 0.348511 -0.0156219
-0.0645305 0.371795 0.100529 0 1 0
-0.187071 0.269597 0.320513 0 0 1
-0.159665 -0.371795 0.1779 0 1 0
-0.485062 0.0973775 0.320513 0 0 1
-0.30009 0.371795 0.218123 0 1 0
-0.247003 -0.0403431 -0.332468 -0.21091 -0.627226 0.749737
0.295407 -0.371795 -0.340502 0 1 0
0.343889 0.294872 -0.245582 0 1 0
-0.0857043 -0.294872 -0.356353 0 1 0
0.141026 0.33935 0.274983 1 0 0
-0.270204 0.0181813 -0.198318 0.914921 -0.403629 -0.00192832
-0.453888 0.152459 -0.371795 0 0 1
-0.5 -0.00427691 -0.0140658 1 0 0
-0.495115 -0.294872 0.268618 0.287144 0.951866 -0.107235
0.101981 -0.294872 0.224861 0 1 0
0.0488312 0.371795 -0.17162 0 1 0
-0.346425 -0.174107 -0.371795 0 0 1
-0.252121 0.279769 -0.371795 0 0 1
-0.253792 0.371795 0.127288 0 1 0
0.313643 0.0623205 0.371795 0 0 1
-0.0787043 0.371795 0.185223 0 1 0
-0.5 -0.0599826 -0.266782 1 0 0
0.0123654 -0.294872 -0.159781 0 1 0
-0.157041 -0.203365 -0.333333 0 0 1
-0.21585 -0.0409559 -0.202757 -0.350608 0.936495 0.00710471
-0.139824 -0.259406 -0.371795 0 0 1
0.256631 -0.0283244 -0.252561 -0.667936 0.744176 -0.00800514
-0.43662 -0.242031 0.320513 0 0 1
-0.245069 0.371795 -0.192924 0 1 0
0.5 -0.163744 -0.286435 1 0 0
0.00566958 -0.252374 -0.371795 0 0 1
-0.5 0.229622 0.0322318 1 0 0
0.0611526 -0.0555024 0.320513 0 0 1
-0.477631 0.325155 0.320513 0 0 1
0.239392 -0.0185482 0.0107726 0.209807 -0.442043 0.872112
-0.387452 0.371795 0.0185912 0 1 0
-0.5 -0.134406 -0.325686 1 0 0
0.0756957 0.190287 0.363777 0.302755 0.860703 -0.409303
-0.156742 -0.229738 0.371795 0 0 1
0.141109 -0.314705 -0.196475 1 0 0
0.0646389 0.371795 -0.311265 0 1 0
0.0111064 0.0763865 0.320513 0 0 1
0.119403 -0.294872 -0.166243 0 1 0
-0.322368 0.371795 0.148545 0 1 0
0.265919 0.294872 -0.0942803 0 1 0
0.465884 -0.294872 -0.100981 0 1 0
0.141109 -0.301926 -0.204877 0.980372 0.197135 0.00307254
0.5 -0.0881287 -0.0560749 1 0 0
0.5 -0.155184 -0.147271 1 0 0
0.195168 0.216258 -0.333333 0 0 1
-0.5 -0.0411394 0.197504 1 0 0
0.0215746 0.371795 -0.311673 0 1 0
0.5 -0.172965 0.0380589 1 0 0
-0.46247 0.371795 0.102717 0 1 0
-0.0297712 -0.0430716 -0.333333 0 0 1
-0.141154 -0.315813 0.0807232 1 0 0
0.375884 -0.0375532 0.371795 0.450436 -0.00682262 0.892783
0.0346793 -0.201597 0.341281 -0.164583 0.986363 0
0.203076 -0.371795 -0.0821744 0 1 0
0.00999454 0.336723 -0.371795 0 0 1
-0.5 -0.26432 -0.0794471 1 0 0
-0.5 -0.152102 0.310491 0.999052 -1.76097e-006 -0.0435442
0.439418 0.245789 0.320513 0 0 1
0.169012 -0.331098 0.320513 0 0 1
0.186098 -0.364408 0.320513 0.00750425 -0.157378 0.98751
0.137113 -0.221741 0.371795 0 0 1
0.5 0.140221 0.00587064 1 0 0
-0.37683 -0.0140917 -0.371795 0 0 1
-0.375827 0.251005 0.320513 0 0 1
0.5 0.264068 0.0967083 1 0 0
0.0641562 0.194249 0.35434 0.324723 0.945809 0
0.136766 -0.0887499 -0.333333 0 0 1
-0.166575 -0.371795 0.0543817 0 1 0
-0.5 -0.175942 -0.208743 1 0 0
0.081297 -0.131014 -0.333333 0 0 1
0.288095 -0.0212205 0.371795 0 0 1
0.10033 0.370593 0.320513 -0.0270051 0.947746 0.31788
0.5 -0.0673746 0.277158 1 0 0
0.10983 0.170579 0.320513 -0.502424 -0.501925 0.704018
-0.5 -0.266407 -0.243407 1 0 0
0.268853 -0.00431975 -0.030685 0.992105 -0.125288 0.00559625
0.5 0.114463 0.260215 1 0 0
-0.156869 -0.371795 -0.158715 0 1 0
0.436799 0.294872 0.00730407 0 1 0
-0.10415 -0.294872 0.113284 0 1 0
0.144866 -0.371795 0.0940852 0.462456 0.869689 0.172556
-0.5 -0.0647554 0.177636 1 0 0
-0.351728 -0.226647 0.320513 0 0 1
0.000921538 -0.294872 0.122367 0 1 0
-0.5 0.192899 0.304052 1 0 0
0.5 -0.000242594 0.179484 1 0 0
0.5 -0.0136541 -0.140515 1 0 0
-0.5 0.282367 -0.225068 1 0 0
-0.448718 -0.340239 -0.251691 1 0 0
-0.5 0.0128734 0.0780256 1 0 0
-0.313897 0.0537155 0.371795 0 0 1
-0.5 0.369522 -0.0376154 0.705135 -0.679977 0.201036
-0.5 0.01562 -0.269646 1 0 0
0.20555 0.294872 0.269309 0 1 0
0.361138 0.0631195 -0.371795 0 0 1
-0.0731488 -0.142585 0.320513 0 0 1
-0.5 0.333911 0.0296626 1 0 0
-0.5 0.0946342 0.298991 1 0 0
0.439495 0.0950001 -0.371795 0 0 1
0.5 0.150575 -0.230427 1 0 0
0.262477 0.197302 0.371795 0 0 1
-0.450578 0.371795 -0.164521 0 1 0
0.12146 -0.063047 0.320513 0 0 1
-0.302188 -0.371795 0.218871 0 1 0
0.152206 0.294872 -0.0790747 0.113928 0.993383 -0.0144999
0.5 0.286367 0.181114 0.981684 0.189907 0.0152244
-0.5 0.290622 -0.0738481 1 0 0
-0.410006 0.371795 0.244844 0 1 0
0.263459 0.258015 -0.371795 0 0 1
-0.494159 0.197488 -0.371795 0.421407 0.0790808 0.903417
-0.408806 -0.371795 -0.279537 0 1 0
-0.472111 0.371795 -0.095937 0 1 0
0.28642 -0.289087 -0.371795 0 0 1
-0.5 0.367616 -0.140403 0.825073 -0.506277 -0.250874
-0.5 -0.227053 0.00795037 1 0 0
-0.498351 -0.294872 0.21194 0.622277 0.782578 0.0185423
-0.423541 -0.371795 -0.198932 0 1 0
-0.412514 -0.371795 -0.27099 0 1 0
-0.5 -0.0862944 -0.168369 1 0 0
0.5 0.00446287 -0.250259 1 0 0
-0.365296 -0.371795 -0.0368912 0 1 0
0.385764 0.289822 -0.371795 -0.0836074 -0.280352 0.956249
-0.448718 -0.34194 0.233531 1 0 0
0.404359 -0.371795 0.0809343 0 1 0
0.346323 0.294872 0.092518 0 1 0
0.5 0.238432 -0.347594 1 0 0
0.431605 0.294872 -0.334945 0 1 0
0.29532 0.294872 0.264024 0 1 0
0.424701 0.089979 -0.371795 0 0 1
-0.393619 -0.371795 -0.0325724 0 1 0
-0.357275 0.113885 0.357087 0.879208 -0.476439 0
0.166515 0.0429828 -0.333333 0 0 1
0.141109 -0.365763 0.275311 0.967553 0.251166 -0.0275196
0.351906 0.10399 0.371795 0.183495 0.0191031 0.982835
0.5 -0.18148 -0.00288842 1 0 0
-0.5 0.0174925 -0.0870754 1 0 0
-0.118004 0.181574 0.371795 0.0100379 -0.0157802 0.999825
0.307377 0.294872 0.0805118 0 1 0
0.382356 0.0298064 0.355297 0.997377 0.0723803 -0.000502179
-0.448718 -0.302222 0.225952 0.992479 0.113089 -0.0468571
-0.5 -0.281603 -0.361484 0.977085 -0.0524414 0.206289
-0.136654 -0.129832 -0.333333 0 0 1
-0.303753 0.22472 -0.371795 0 0 1
-0.359513 -0.371795 0.188332 0 1 0
0.211354 0.294872 -0.224233 0 1 0
-0.415125 0.371795 0.255591 0 1 0
-0.0824107 0.316322 0.320513 0 0 1
0.246776 -0.371795 0.12076 0 1 0
0.104479 0.293293 -0.371795 0 0 1
0.0777526 -0.189581 0.320875 -0.239526 0.777234 0.581837
-0.195393 0.0251848 -0.22861 0.8058 0.591684 0.0244048
-0.213097 -0.371795 0.0864602 0 1 0
0.147414 -0.371795 0.0421953 0.237662 0.971238 0.0146116
0.5 -0.0531799 -0.225252 1 0 0
0.5 0.253049 0.129387 1 0 0
-0.429558 0.251529 -0.371795 0 0 1
-0.448718 -0.346391 -0.147114 1 0 0
0.208641 0.294872 -0.167812 0 1 0
0.0662509 0.148543 0.320513 0 0 1
0.378204 -0.0533638 0.351777 0.977148 -0.21256 0
-0.00799688 -0.294872 -0.258454 0 1 0
-0.436781 -0.0774276 0.320513 0 0 1
0.12681 0.101688 0.320513 0 0 1
-0.249934 -0.371795 0.0750371 0 1 0
-0.0384719 -0.294872 -0.19707 0 1 0
-0.5 0.136631 0.0389956 1 0 0
0.5 0.287856 0.106123 0.912398 0.408995 -0.0159303
0.224989 0.233018 -0.371795 0 0.52692 0.849915
0.5 0.252178 -0.350592 1 0 0
0.186508 0.294872 0.240681 0 1 0
-0.5 0.282385 0.0186335 1 0 0
-0.252198 0.371795 -0.277817 0 1 0
-0.0948198 0.0474537 0.320513 0 0 1
-0.346288 -0.134005 0.35184 0.861676 0.507442 -0.00413062
-0.356562 0.371795 0.220584 0 1 0
0.194402 -0.00251945 0.320513 0 0 1
-0.335316 0.371795 -0.167441 0 1 0
0.329315 0.294872 0.310742 -0.0163959 0.998721 0.0478297
-0.300414 -0.295064 -0.371795 0 0 1
-0.5 0.256325 0.144237 1 0 0
-0.0267695 -0.278041 0.320513 0 0 1
0.366822 0.0657797 0.371795 0.117126 -0.0139657 0.993019
0.5 -0.0288918 0.30386 1 0 0
0.382438 -0.0161668 0.371795 0.852071 0.135445 0.505598
-0.14501 0.144501 0.366972 -0.393908 0.781841 -0.483281
0.5 0.147238 0.0501281 1 0 0
0.141026 0.318034 -0.0208167 1 0 0
-0.182261 -0.371795 -0.0759864 0 1 0
-0.107124 0.174616 0.329673 -0.499455 0.865665 -0.0341822
0.5 -0.0787987 0.201338 1 0 0
0.0824486 -0.241006 0.371795 0 0 1
0.5 0.122763 0.0984821 1 0 0
-0.448718 -0.354339 -0.313935 1 0 0
0.141026 0.337556 -0.150334 1 0 0
0.406536 -0.371795 -0.318254 0 1 0
0.5 0.0874377 -0.189269 1 0 0
0.455433 -0.194824 0.320513 0 0 1
0.161904 0.100315 0.320513 0 0 1
-0.142082 0.371795 0.260943 0 1 0
-0.247551 -0.371795 -0.0209809 0 1 0
0.467179 -0.167494 -0.371795 0 0 1
-0.264603 -0.0273875 -0.0557311 0.775163 0.631747 0.0042532
0.141109 -0.345819 -0.127407 1 0 0
-0.14298 -0.00676407 -0.333333 0 0 1
-0.00144067 -0.204555 0.34832 0 1 0
-0.448718 -0.352577 -0.272517 1 0 0
-0.226037 0.284658 -0.371795 0 0 1
-0.261803 -0.0379864 0.371795 0 0 1
0.5 -0.0476534 0.0409783 1 0 0
0.322665 0.0763924 0.371795 0 0 1
0.141026 0.365649 0.0873446 0.988225 0.147771 -0.039682
-0.209751 -0.371795 0.291736 0 1 0
-0.330214 0.0567285 -0.371795 -0.077874 -0.027205 0.996592
-0.423916 0.073263 -0.371795 0 0 1
-0.5 -0.0629856 -0.0457721 1 0 0
-0.156888 0.291007 -0.371795 0 0 1
0.105269 -0.294872 0.147152 0 1 0
0.342098 0.236982 0.320513 0 0 1
0.273655 0.0335209 0.371795 0 0 1
0.448718 -0.343353 -0.0797634 1 0 0
-0.0127426 -0.12299 0.320513 0 0 1
-0.347604 -0.371795 0.0292616 0 1 0
0.0182501 0.292708 0.320513 0 0 1
0.5 -0.208401 -0.321947 1 0 0
0.187178 0.294872 0.309334 0 1 0
0.41223 0.294872 0.305671 0 1 0
0.0627342 -0.294872 0.268799 0 1 0
0.5 -0.198374 -0.0428206 1 0 0
-0.141154 -0.327851 -0.0512057 1 0 0
0.17167 0.294872 0.039991 0 1 0
0.0559032 -0.287778 0.320513 -0.00374728 -0.0630886 0.998001
-0.138597 -0.151338 0.346545 0.659902 0.751329 0.00585737
-0.288588 0.371795 -0.066979 0 1 0
0.5 -0.229761 -0.241155 1 0 0
-0.253799 0.0975993 -0.333333 0 0 1
0.5 0.22215 0.251895 1 0 0
0.132391 0.0720009 -0.333333 0 0 1
-0.499189 -0.0991706 0.320513 0.953427 -0.117054 -0.277985
-0.190088 -0.0155096 -0.266127 0.940056 -0.340995 -0.00401373
0.346045 -0.371795 0.32019 0.0550518 -0.622243 0.780886
0.0926893 0.328695 -0.371795 0 0 1
0.5 -0.147495 0.220019 1 0 0
-0.368807 -0.371795 0.0750438 0 1 0
-0.374627 0.371795 -0.142345 0 1 0
0.270986 -0.371795 -0.179609 0 1 0
0.41776 -0.371795 0.249233 0 1 0
-0.140173 -0.294872 -0.288097 0.883037 -0.398141 -0.248455
0.5 -0.109828 -0.221916 1 0 0
-0.411363 -0.371795 -0.0336381 0 1 0
-0.216867 -0.13292 -0.333333 0 0 1
-0.5 -0.175178 0.238725 1 0 0
0.320513 0.141839 -0.361007 1 0 0
0.0344696 -0.294872 0.0545576 0 1 0
-0.392783 0.371795 0.156356 0 1 0
0.5 -0.0578077 -0.187491 1 0 0
-0.260597 -0.371795 -0.313668 0 1 0
-0.296221 -0.168585 -0.333333 0 0 1
-0.145436 0.144038 0.35864 0.734801 -0.678283 0
-0.332286 0.199563 -0.371795 0 0 1
0.147549 -0.0151365 0.320513 0 0 1
-0.381532 -0.0439447 0.320513 0.714991 -0.141532 -0.684658
-0.347808 -0.301383 -0.371795 0 0 1
-0.399108 -0.297603 0.320513 0 0 1
0.352856 0.294872 0.295346 0 1 0
-0.170105 -0.371795 -0.0979901 0 1 0
0.0953579 0.371795 0.305301 0 1 0
0.5 -0.176434 -0.2818 1 0 0
0.5 0.191216 -0.0499636 1 0 0
0.256855 -0.371795 -0.311375 0 1 0
0.291331 -0.371795 0.138647 0 1 0
0.0024893 0.371795 0.300958 0 1 0
-0.373174 0.0612205 0.371795 -0.355857 -0.0300051 0.934059
0.158282 -0.28356 0.320513 0 0 1
0.392325 -0.357368 0.320513 0 0 1
0.370856 0.294872 -0.111034 0 1 0
-0.5 0.312572 0.236599 1 0 0
-0.20921 0.371795 0.289886 0 1 0
-0.401955 0.155725 -0.371795 0 0 1
0.127311 0.371795 -0.333494 0 1 0
-0.5 -0.155812 -0.344613 1 0 0
-0.5 0.0571488 0.113115 1 0 0
-0.314999 0.309018 -0.371795 0 0 1
0.406569 -0.19372 -0.371795 0 0 1
-0.5 0.137151 0.153908 1 0 0
-0.258068 0.248198 0.320513 0 0 1
-0.427132 -0.371795 0.0968395 0 1 0
-0.48327 -0.294872 0.177762 0 1 0
0.246113 0.270336 -0.371795 0 0 1
0.141109 -0.315109 0.0580444 1 0 0
-0.5 0.318065 -0.126119 1 0 0
-0.0341604 0.119306 0.320513 0 0 1
-0.0838777 0.371795 -0.215096 0 1 0
0.194055 0.0110207 -0.206156 0.957941 -0.286703 0.012297
0.141109 -0.324791 -0.162813 1 0 0
0.490709 0.285158 -0.371795 0 0 1
0.439405 -0.371795 -0.0847351 -0.0916995 0.995646 0.0167393
0.311665 -0.371795 0.262824 0 1 0
0.141026 0.315343 -0.328694 1 0 0
-0.057076 -0.0277573 -0.333333 0 0 1
0.0167238 -0.294872 -0.201111 0 1 0
-0.141154 -0.359716 0.166861 1 0 0
0.197286 -0.0188563 -0.118151 0.863543 0.504247 -0.0053691
-0.216544 0.228764 0.371795 -0.0352351 0.238304 0.970551
-0.33605 0.371795 -0.150907 0 1 0
0.015062 -0.294872 -0.0420104 0 1 0
0.386786 -0.371795 -0.0401757 0 1 0
0.334786 0.294872 0.138702 0 1 0
0.5 0.0947536 -0.313232 1 0 0
-0.27064 0.0172466 -0.104171 0.923133 -0.38383 0.0223725
0.464993 0.185066 0.320513 0 0 1
0.152427 0.294872 0.221693 0 1 0
0.0282845 0.371795 -0.150075 0 1 0
-0.420376 -0.371795 0.225715 0 1 0
0.478909 -0.0523801 0.320513 0 0 1
0.251697 -0.0321207 -0.226356 -0.552123 0.833561 0.0183272
-0.142743 -0.262847 0.320513 0.0451687 -0.114011 0.992452
-0.5 0.0782154 -0.163151 1 0 0
-0.397551 0.24045 0.320513 0 0 1
-0.494188 0.371795 0.0535206 -0.266021 0.963443 0.0317814
0.0720817 -0.0602584 0.320513 0 0 1
-0.220739 0.371795 0.178012 0 1 0
0.5 0.274647 -0.0798874 1 0 0
0.0593684 -0.294872 -0.0604345 0 1 0
0.5 0.12951 0.0610451 1 0 0
-0.0753126 0.359685 -0.371795 0 0 1
-0.5 -0.0359341 0.286545 1 0 0
-0.5 0.0193758 -0.0161307 1 0 0
0.333334 0.294872 0.220201 0 1 0
0.284248 0.0745864 -0.333333 0 0 1
-0.38291 0.0220597 0.323762 0.905182 0.0459154 -0.422536
-0.279694 0.207007 -0.333333 0 0 1
-0.38752 0.0102903 -0.371795 0 0 1
-0.412103 -0.227745 -0.371795 0 0 1
0.402488 0.115305 -0.371795 0 0 1
0.198857 -0.106437 0.371795 0 0 1
0.161675 -0.371795 0.152323 0 1 0
0.5 0.0239075 -0.199853 1 0 0
-0.144584 -0.0222833 0.320513 0 0 1
-0.459974 -0.294872 0.0759351 0 1 0
0.382425 0.294872 0.317383 0.033147 0.848187 0.528658
0.5 -0.0534657 -0.104926 1 0 0
0.396897 0.294872 0.171378 0 1 0
0.192564 0.294872 -0.268443 0 1 0
0.00858629 0.371795 -0.290898 0 1 0
0.191133 -0.371795 -0.00672163 0 1 0
0.261474 0.0229496 -0.120565 0.790686 0.612174 -0.00762484
0.316026 -0.327125 -0.371795 0 0 1
-0.405252 -0.371795 0.178181 0 1 0
-0.5 -0.154044 0.279192 1 0 0
0.319827 0.294872 -0.238934 0 1 0
-0.306226 -0.127634 0.371795 0 0 1
-0.175255 0.00363527 -0.333333 0.00762835 -0.00277707 0.999967
0.225923 0.0380375 -0.220273 -0.14398 0.988527 0.0456449
0.136817 0.371795 -0.255138 0.473663 0.877564 0.0743308
0.141109 -0.297323 0.0933554 0.949487 0.313628 0.0105487
-0.5 -0.217251 -0.246449 1 0 0
-0.0933181 -0.251913 0.371795 -0.0889355 -0.295298 0.951257
0.0355471 0.237367 0.371795 0 0 1
-0.080359 -0.294872 0.223563 0 1 0
-0.5 0.0983715 0.226476 1 0 0
0.1784 0.294872 -0.182199 0 1 0
0.141109 -0.352054 -0.072928 1 0 0
0.0414303 0.20047 0.337835 0.180709 0.983537 0
-0.279829 0.371795 -0.17846 0 1 0
0.5 -0.0521669 -0.00497403 1 0 0
-0.249891 -0.0229122 -0.0270009 -0.344091 -0.365219 0.864995
-0.30894 -0.371795 0.316174 0.132514 0.842472 -0.522189
-0.158479 -0.0439042 -0.333333 0 0 1
0.5 -0.0353238 -0.0223713 1 0 0
-0.0139687 0.371795 0.147656 0 1 0
0.20501 0.0750023 -0.333333 0 0 1
-0.364349 -0.371795 -0.0285 0 1 0
-0.496795 -0.283498 0.320513 -0.276962 0.0463804 0.959761
-0.389344 0.0363673 -0.371795 0 0 1
0.453821 -0.294872 0.0204363 -0.228898 0.943472 0.239721
0.210724 -0.230897 -0.369644 -0.190048 -0.488868 0.851405
0.432751 -0.346753 0.320513 0 0 1
0.5 -0.249444 -0.320959 1 0 0
0.288229 -0.211949 -0.333333 0.371568 -0.460649 0.806064
0.0415827 0.0371903 0.320513 0 0 1
0.378825 -0.184287 0.320513 0 0 1
0.477392 0.294872 0.0216357 0 1 0
0.26836 -0.0077447 -0.108461 0.975136 -0.221606 0
-0.241826 -0.149388 -0.333333 0 0 1
0.326732 -0.161361 0.354304 0.800443 -0.599409 0
-0.0877592 -0.0395367 0.320513 0 0 1
0.448718 -0.34308 -0.0978431 1 0 0
0.114369 -0.294872 0.261464 0 1 0
-0.448718 -0.351397 -0.348642 1 0 0
-0.440139 -0.371795 0.00300837 0.0893786 0.995997 0.00126248
-0.400523 -0.371795 0.167774 0 1 0
0.0974925 -0.294872 -0.175798 0 1 0
0.153668 0.294872 -0.321479 0 1 0
-0.5 0.184947 -0.0329956 1 0 0
0.5 0.205621 0.311179 0.955148 0.0168849 0.295647
0.187769 -0.371795 -0.217567 0 1 0
-0.142641 0.00131613 0.320513 0 0 1
-0.5 -0.280488 -0.350997 1 0 0
-0.5 0.363215 0.158747 0.999698 -0.0245525 0.000875096
0.241205 0.294872 -0.0722781 0 1 0
-0.5 0.231312 0.310319 0.999985 0.00131248 -0.00540145
-0.0513484 -0.294872 -0.0755942 0 1 0
-0.141154 -0.302227 0.241031 0.994056 -0.0982599 0.0468885
0.172332 0.294872 -0.062763 0 1 0
0.5 -0.0323986 -0.132664 1 0 0
-0.335588 -0.371795 -0.0689456 0 1 0
0.406612 -0.371795 0.1626 0 1 0
-0.017054 -0.294872 0.169742 0 1 0
-0.5 0.0211451 0.202305 1 0 0
-0.458152 0.0625153 -0.371795 0 0 1
0.212754 -0.0311916 0.00146676 0.350816 0.724535 -0.593276
0.5 -0.202365 0.0722523 1 0 0
-0.25888 0.371795 -0.209716 0 1 0
-0.273194 0.00944582 -0.126049 0.982835 -0.184481 -0.00152835
0.5 0.0431308 0.317233 0.918862 0.082235 0.385914
0.128619 0.0796953 -0.333333 0 0 1
-0.201063 0.0317041 -0.141859 0.676999 0.735951 -0.00694396
-0.5 0.275009 -0.185491 1 0 0
-0.152364 -0.371795 0.131591 0 1 0
0.0439638 -0.231234 0.371795 0 0 1
-0.0606917 0.371795 0.0480679 0 1 0
-0.49902 0.0677695 -0.371795 0.527923 0 0.849292
0.089116 -0.294872 -0.366465 0.00513853 0.974884 0.222655
0.351007 -0.371795 0.312114 0 1 0
-0.311444 0.259499 -0.371795 0 0 1
-0.106369 0.371795 0.0485098 0 1 0
-0.302022 -0.371795 -0.216708 0 1 0
0.0403428 -0.256282 0.350968 0 1 0
-0.5 0.230682 -0.113057 1 0 0
-0.115099 0.371795 -0.370693 -0.0664769 0.819896 -0.568639
0.413095 -0.0582905 0.320513 0 0 1
-0.326855 -0.161197 0.349592 0.79956 0.600586 0
-0.265534 0.0260576 -0.164223 0.805071 -0.593111 0.00889507
0.5 -0.101695 0.260032 1 0 0
0.5 -0.262895 0.0753886 1 0 0
-0.45242 0.104644 0.320513 0 0 1
0.5 0.0248489 -0.0513495 1 0 0
0.5 0.222547 0.200789 1 0 0
0.20402 0.0274368 -0.281543 0.709468 -0.704738 0
0.139539 -0.294872 -0.0905424 0.718947 0.694814 0.0186921
-0.5 0.0671221 0.0298155 1 0 0
-0.0606478 -0.165381 0.320513 0 0 1
0.5 -0.129015 -0.179171 1 0 0
0.320657 0.191524 -0.371795 0.0850873 0.0263228 0.996026
0.5 -0.253079 0.272248 1 0 0
-0.0298787 -0.294872 -0.0665887 0 1 0
0.104973 -0.021481 -0.333333 0 0 1
0.0358924 0.371795 0.0636036 0 1 0
-0.0469148 -0.128958 0.320513 0 0 1
0.243637 -0.371795 -0.190603 0 1 0
0.358674 0.294872 0.289224 0 1 0
0.5 0.23182 -0.36516 0.993834 0.0341966 -0.105477
0.128434 -0.24808 -0.371795 0 0 1
0.5 -0.0332531 -0.349525 1 0 0
-0.164191 -0.224909 -0.333333 0.013427 -0.279146 0.960155
0.272546 0.28834 0.320513 -0.0712022 0.267209 0.961004
0.5 0.0613333 0.142113 1 0 0
0.448718 -0.306653 0.104971 1 0 0
0.149987 -0.371795 0.0961264 0 1 0
0.448718 -0.360943 0.201739 1 0 0
0.141026 0.314407 0.104328 1 0 0
-0.463107 -0.240362 -0.371795 0 0 1
0.204491 -0.0279077 -0.0387036 0.660462 0.750788 0.0103354
-0.387542 0.371795 0.178109 0 1 0
-0.5 -0.149908 0.106157 1 0 0
0.5 0.0128685 -0.340793 1 0 0
0.078535 -0.241049 -0.371795 0 0 1
0.254433 0.294872 0.157972 0 1 0
-0.345102 0.202203 -0.371795 0 0 1
0.231851 0.294872 -0.00567309 0 1 0
-0.137618 0.195862 0.371795 0 0 1
0.141109 -0.32778 0.0428589 1 0 0
-0.141154 -0.303462 0.00110019 0.992964 -0.113706 -0.0330612
0.115563 -0.0492915 -0.333333 0 0 1
-0.474105 0.371795 0.115271 0 1 0
0.5 0.264038 0.0842837 1 0 0
0.135644 -0.294872 -0.0458064 0.333535 0.941447 0.0493095
0.272365 -0.371795 -0.230733 0 1 0
-0.47225 0.0721805 -0.371795 0 0 1
-0.5 0.165215 -0.263689 1 0 0
-0.448718 -0.29989 -0.368253 0.9105 0.203358 0.36005
-0.5 0.284193 -0.134596 1 0 0
-0.326109 0.371795 0.0342643 0 1 0
-0.446061 0.0309271 0.320513 0 0 1
-0.28505 0.371795 -0.337977 0 1 0
0.164323 -0.371795 -0.255755 0 1 0
0.5 0.0360696 0.201084 1 0 0
-0.417846 -0.371795 0.295605 0 1 0
0.424153 0.0281574 0.320513 0 0 1
0.290054 -0.371795 -0.00500975 0 1 0
-0.204839 0.371795 -0.331641 0 1 0
0.141109 -0.355307 0.107721 1 0 0
0.450661 -0.294872 -0.103747 -0.386736 0.912999 -0.129876
-0.253993 0.224784 -0.333333 -0.0158077 0.570821 0.820923
-0.498114 0.371795 -0.0333613 -0.563135 0.779734 -0.273666
-0.206637 0.371795 0.263381 0 1 0
0.5 0.0916284 0.0303815 1 0 0
-0.237256 0.371795 -0.184649 0 1 0
0.266245 0.294872 0.227774 0 1 0
0.5 -0.0126695 0.291615 1 0 0
0.5 -0.0921924 0.0910192 1 0 0
-0.0881492 0.00343549 -0.333333 0 0 1
-0.00682409 0.371795 -0.225607 0 1 0
0.106767 -0.294872 -0.045368 0 1 0
0.0934646 -0.0842971 -0.333333 0 0 1
-0.357095 0.00532752 -0.371795 0 0 1
-0.0472442 0.371795 -0.326664 0 1 0
0.5 0.0454246 0.150801 1 0 0
0.5 -0.00862686 -0.0799337 1 0 0
0.028689 -0.120449 -0.333333 0 0 1
-0.490485 0.0497776 0.320513 -0.030898 0.0103867 0.999469
0.141026 0.345532 0.0369476 1 0 0
0.5 0.112428 0.172378 1 0 0
0.448718 -0.332192 -0.275136 1 0 0
0.168693 -0.371795 -0.301735 0 1 0
-0.0131019 0.193547 -0.333333 0 0 1
0.00520405 -0.294872 -0.254322 0 1 0
-0.283713 -0.0615643 -0.333333 0 0 1
-0.441071 0.202284 0.320513 0 0 1
-0.0534176 0.231432 0.371795 0 0 1
-0.187816 -0.0072686 -0.045592 0.981688 -0.168546 0.0887702
-0.443721 -0.371795 0.193689 0.253526 0.965895 0.0526443
0.389241 -0.0604285 -0.371795 0 0 1
0.194067 0.25826 -0.371795 0 0 1
0.245886 0.294872 -0.201473 0 1 0
0.250162 -0.218337 -0.333333 0 0 1
-0.5 -0.229008 -0.0320289 1 0 0
-0.196022 0.0260823 -0.14058 0.802009 0.596938 0.0211337
0.5 0.100507 -0.119748 1 0 0
0.311495 -0.241729 0.320513 0 0 1
0.123386 -0.183725 0.371795 0 0 1
-0.5 0.164961 -0.0565834 1 0 0
-0.0499559 -0.0705018 0.320513 0 0 1
-0.141401 0.371795 0.242368 0 1 0
-0.294136 -0.365054 0.320513 0.0682383 -0.135149 0.988473
0.0358285 -0.230897 -0.366661 0.0936908 0.902592 -0.420177
-0.223912 -0.237134 0.368381 0.135764 0.695556 -0.705528
-0.0273627 0.0907978 0.320513 0 0 1
-0.102214 -0.294872 -0.0347024 0 1 0
0.316903 0.176442 -0.347605 0.959192 0.282745 -0.00230031
0.135633 -0.294872 -0.24606 0.278361 0.959556 0.0420328
-0.204403 0.371795 0.169129 0 1 0
-0.129538 0.185537 -0.333333 0 0 1
-0.327886 0.15982 0.36084 0.800536 -0.599284 0
0.00805844 0.204555 0.355816 0.00699449 0.999976 -7.83998e-005
-0.299346 -0.190373 0.340874 0.688487 0.725213 0.00721245
-0.5 0.124166 -0.303013 1 0 0
-0.293927 0.0131079 -0.333333 0 0 1
0.174064 -0.371795 -0.12958 0 1 0
-0.5 -0.249233 -0.198755 1 0 0
0.300097 -0.115822 0.371795 0 0 1
0.0736906 -0.11714 -0.333333 0 0 1
0.0935032 -0.0389352 -0.333333 0 0 1
-0.142909 -0.371795 0.175575 -0.658059 0.752228 -0.0333225
0.182687 -0.132582 -0.333333 0 0 1
0.141109 -0.3391 -0.0528194 1 0 0
0.402744 0.294872 -0.310123 0 1 0
0.00750978 -0.204555 0.360609 -0.0104383 0.999789 0.0176888
0.421719 0.294872 -0.334169 0 1 0
-0.261892 0.000908434 -0.0278135 -0.515627 -0.00562598 0.856795
0.5 -0.18546 -0.313951 1 0 0
-0.152819 0.263013 0.320513 0.0174072 0.130267 0.991326
-0.141154 -0.36924 0.217072 0.749323 -0.661732 0.0250287
0.5 0.0201508 0.0911486 1 0 0
-0.5 0.323615 -0.355467 1 0 0
-0.0161157 0.256643 0.320513 -0.0920022 0.334046 0.938056
-0.186324 0.150714 -0.333333 0 0 1
0.21398 0.294872 0.0856955 0 1 0
-0.5 -0.071814 0.229891 1 0 0
0.250058 -0.267687 -0.371795 0 0 1
0.5 -0.280331 0.090465 1 0 0
0.180681 -0.358705 -0.371795 0.0209356 0.0799036 0.996583
-0.5 0.181036 -0.332521 1 0 0
0.5 0.17366 -0.0732507 1 0 0
0.20216 0.294872 -0.194735 0 1 0
0.0966576 0.0198992 0.320513 0 0 1
0.5 0.111518 0.215754 1 0 0
-0.0388298 -0.294872 -0.169536 0 1 0
0.365269 -0.371795 0.265278 0 1 0
0.5 0.213074 0.173484 1 0 0
-0.358304 0.279203 0.320513 0 0 1
-0.448718 -0.331461 0.320389 -0.420185 0.113572 0.900303
0.425985 -0.12778 -0.371795 0 0 1
-0.5 0.261485 -0.274965 1 0 0
0.174076 -0.371795 -0.37158 0.116649 0.911742 0.393852
0.5 -0.256593 -0.286211 1 0 0
-0.33785 0.0319949 0.371795 0 0 1
-0.19868 -0.371795 -0.0858228 0 1 0
0.475427 0.294872 0.0772611 0 1 0
-0.5 0.0789301 0.170971 1 0 0
0.25554 0.294872 0.237125 0 1 0
-0.341947 -0.371795 -0.163593 0 1 0
-0.0560329 -0.0132303 0.320513 0 0 1
0.487543 -0.294872 0.00912813 -0.0135075 0.999908 0.00131843
0.242724 -0.228723 0.333196 -0.479249 0.877679 0
0.345075 0.294872 0.229155 0 1 0
-0.0618608 0.371795 -0.055312 0 1 0
-0.200878 0.371795 0.220029 0 1 0
0.448718 -0.363379 0.229504 0.99187 -0.125358 -0.021908
-0.491991 0.371795 -0.0389921 -0.233341 0.971888 0.0314108
-0.0891206 0.197652 0.371795 0 0 1
-0.153033 -0.333339 0.320513 0 0 1
0.00101143 0.285375 0.320513 0 0 1
-0.479251 -0.294872 0.0174159 0 1 0
-0.201807 -0.230897 -0.353361 0 1 0
-0.356586 -0.00715077 -0.371795 0 0 1
-0.329216 0.371795 -0.123525 0 1 0
-0.230443 0.371795 0.213243 0 1 0
-0.273817 0.00619345 -0.145161 0.984696 -0.17037 0.0367115
-0.15542 0.133192 0.349616 0.738127 -0.674662 0
0.0154691 0.371795 -0.0437547 0 1 0
-0.0802766 0.371795 0.0148913 0 1 0
0.136298 0.111911 -0.333333 0 0 1
0.138519 0.21183 -0.333333 0 0 1
-0.402365 -0.371795 0.0108075 0 1 0
0.389661 0.294872 -0.070899 0 1 0
-0.475785 0.371795 0.0750621 0 1 0
-0.16301 0.124489 0.335902 0.806705 -0.590897 -0.00831451
-0.197014 -0.0274997 -0.160699 0.765279 -0.643687 0.00388504
-0.227289 0.371795 -0.0878863 0 1 0
0.5 0.0693809 -0.134682 1 0 0
0.384402 -0.299477 0.320513 0 0 1
-0.5 0.0399597 -0.207403 1 0 0
-0.5 -0.090464 -0.297856 1 0 0
0.220675 -0.298198 0.320513 0 0 1
-0.383723 -0.270938 -0.371795 0 0 1
-0.198202 -0.289867 0.320513 0 0 1
0.5 -0.13523 -0.336961 1 0 0
0.207296 -0.174231 -0.333333 0 0 1
0.232775 -0.232825 0.371795 0.286852 -0.571082 0.769143
-0.135602 -0.294872 -0.278559 -0.0532506 0.998206 0.0273853
-0.215709 0.24506 -0.371795 0 0 1
-0.489754 0.103271 0.320513 -0.0329491 0.00873207 0.999419
0.141109 -0.320428 -0.182661 1 0 0
-0.485064 -0.0782301 0.320513 0 0 1
0.101019 0.371795 -0.0489669 0 1 0
-0.21542 0.0407553 -0.265526 0.371438 0.928446 0.00467607
-0.238819 -0.0427988 -0.141573 0.245018 0.969473 -0.00944324
-0.326116 0.162184 0.33228 0.795107 -0.606469 0
-0.320535 -0.371795 0.301055 0 1 0
-0.069968 0.371795 0.200648 0 1 0
-0.5 -0.00791991 0.111214 1 0 0
0.269019 -0.0024221 -0.129173 0.998528 -0.0542006 -0.00199451
0.5 0.149328 0.300723 1 0 0
-0.243233 -0.185764 -0.333333 0 0 1
0.435893 0.294872 -0.316423 0 1 0
-0.0855373 0.00511558 -0.333333 0 0 1
-0.302055 -0.371795 0.225539 0 1 0
0.470741 0.294872 -0.0146409 0 1 0
0.5 -0.0583227 0.232722 1 0 0
0.268151 -0.00852612 -0.176312 0.963223 -0.267668 -0.0235592
-0.24577 0.371795 -0.0742256 0 1 0
-0.41118 0.335313 -0.371795 0 0 1
-0.286921 -0.371795 -0.047022 0 1 0
-0.274262 -0.00110714 -0.242332 0.999971 -0.00183455 0.00733813
-0.141154 -0.330612 -0.246829 1 0 0
0.464749 0.294872 -0.0479166 0 1 0
0.386332 0.127994 0.320513 0 0 1
0.260181 0.0247733 -0.31114 0.738017 0.674768 0.00430805
-0.344979 -0.0603109 0.371795 0 0 1
0.322087 -0.12127 -0.371795 0.529117 -0.0522006 0.846942
-0.221928 0.0425867 -0.227591 0.2037 0.979026 -0.00385114
-0.367277 -0.371795 0.0998748 0 1 0
0.141026 0.296523 0.0604622 0.866367 0.49392 -0.0738294
-0.418051 -0.371795 0.156817 0 1 0
-0.5 -0.0644255 0.067858 1 0 0
0.141026 0.304734 0.0242787 1 0 0
-0.000231963 0.371795 0.0646598 0 1 0
-0.460711 -0.0792104 -0.371795 0 0 1
0.472317 -0.25563 0.320513 0 0 1
0.198276 0.294872 0.147426 0 1 0
-0.141154 -0.323395 0.283499 1 0 0
-0.5 0.167298 0.124767 1 0 0
-0.466112 0.100799 0.320513 0 0 1
0.141026 0.351871 -0.028784 1 0 0
0.5 -0.0115087 -0.366415 0.951225 0.106828 -0.289411
-0.5 -0.0153604 0.0631551 1 0 0
-0.362471 0.371795 0.0367935 0 1 0
0.0593991 -0.294872 0.00541904 0 1 0
-0.285659 0.371795 -0.0554576 0 1 0
0.468893 0.294872 -0.033624 0 1 0
-0.3504 0.371795 -0.149579 0 1 0
-0.0943236 -0.294872 -0.29507 0 1 0
-0.0348852 -0.294872 0.126725 0 1 0
-0.404123 -0.371795 0.249728 0 1 0
0.174822 -0.371795 -0.200678 0 1 0
-0.265203 -0.371795 -0.200311 0 1 0
-0.0303654 -0.207596 0.371795 -0.00355631 0.303683 0.952767
-0.423915 -0.0887241 -0.371795 0 0 1
0.0809805 0.0041917 -0.333333 0 0 1
-0.360721 -0.371795 -0.210996 0 1 0
0.31133 0.294872 0.023139 0 1 0
0.5 0.00903521 -0.156005 1 0 0
-0.289303 -0.371795 -0.260878 0 1 0
-0.269764 0.371795 -0.235131 0 1 0
0.5 -0.237364 0.247737 1 0 0
0.107783 0.0156645 0.320513 0 0 1
-0.019237 0.371795 0.156133 0 1 0
-0.306371 0.371795 0.157561 0 1 0
0.5 -0.176117 -0.295742 1 0 0
-0.446392 -0.203217 -0.371795 0 0 1
0.237035 0.0379133 -0.199998 0.118623 0.992933 -0.00357269
-0.241167 -0.371795 -0.175998 0 1 0
0.075754 -0.190267 0.350104 -0.342534 0.939485 -0.00614377
-0.45169 -0.236078 0.320513 0 0 1
0.0766344 -0.0784059 0.320513 0 0 1
0.5 -0.0496556 0.16724 1 0 0
0.452585 0.294872 -0.318278 0 1 0
-0.431389 0.00154258 -0.371795 0 0 1
0.113911 0.371795 0.13044 0 1 0
0.383652 -0.350773 0.320513 0 0 1
-0.0254662 0.337853 -0.371795 0 0 1
-0.193651 0.0226977 -0.151978 0.837011 0.547111 -0.00908877
-0.5 -0.106676 0.16136 1 0 0
-0.00148187 -0.0853438 -0.333333 0 0 1
-0.337574 -0.0138578 0.371795 0 0 1
-0.316098 0.179448 -0.366432 0.917143 -0.29202 -0.271244
0.141109 -0.351496 -0.336093 1 0 0
0.236594 -0.371795 0.179534 0 1 0
0.20257 -0.0324208 0.36538 0.921243 -0.232903 -0.311556
0.5 -0.20494 0.230418 1 0 0
0.35096 -0.371795 0.0951233 0 1 0
0.5 0.272855 -0.0711107 1 0 0
-0.5 0.286744 -0.22037 1 0 0
-0.0149626 -0.0341079 -0.333333 0 0 1
-0.5 -0.0659182 -0.230281 1 0 0
0.463906 -0.294872 0.210888 0 1 0
-0.409483 0.334378 -0.371795 0 0 1
0.196812 0.0178402 -0.161302 0.888161 -0.459417 0.0102402
-0.0147923 -0.168197 -0.333333 0 0 1
-0.271786 0.014699 -0.0444705 0.94601 -0.324114 0.00382242
0.5 -0.149415 -0.0867802 1 0 0
-0.0799183 -0.256282 0.321948 -0.0362751 -0.572048 0.819418
-0.266855 -0.024171 -0.181692 0.833457 0.551617 -0.0326894
-0.396412 -0.306351 0.320513 0 0 1
0.326426 0.294872 -0.154897 0 1 0
0.5 -0.178236 0.280945 1 0 0
0.5 -0.205423 0.00818696 1 0 0
-0.205843 0.235734 -0.371795 -0.131039 0.318874 0.938695
0.103853 -0.164699 0.320513 -0.0155765 0.0838041 0.996361
0.5 0.0553898 -0.126698 1 0 0
-0.203305 -0.371795 -0.0727576 0 1 0
0.380687 -0.249474 0.320513 0 0 1
-0.459593 0.0839223 -0.371795 0 0 1
-0.35257 -0.371795 -0.214588 0 1 0
-0.5 -0.290731 0.20953 0.820684 0.567908 0.0629124
-0.5 0.295477 0.292442 1 0 0
-0.0952767 -0.294872 0.213901 0 1 0
-0.385294 0.371795 0.206516 0 1 0
-0.5 0.143191 -0.210593 1 0 0
-0.5 0.347177 -0.216861 1 0 0
-0.24039 0.0775677 -0.333333 0 0 1
0.141109 -0.307227 -0.224211 1 0 0
0.0669515 -0.256282 0.370665 0.133568 0.859096 -0.494079
0.364769 -0.371795 0.226205 0 1 0
-0.18664 -0.371795 0.160265 0 1 0
-0.147542 -0.0401747 -0.333333 0 0 1
0.165033 0.294872 0.185543 0 1 0
0.254707 0.294872 -0.0488413 0 1 0
0.262725 0.22818 -0.369537 0.352291 0.729539 0.586229
-0.5 -0.227378 0.0642912 1 0 0
-0.363899 -0.371795 0.12627 0 1 0
-0.467477 0.0500924 -0.371795 0 0 1
-0.132821 -0.276819 0.320513 0 0 1
0.189947 -0.0761938 0.34871 0.915783 -0.401674 0
0.274098 0.2243 -0.369876 0.296894 0.755903 0.583493
0.320379 -0.155506 -0.345816 0.997182 -0.0750111 0.0011638
-0.201413 -0.0320548 -0.136943 -0.686338 0.727252 0.00665581
0.5 -0.236778 -0.295149 1 0 0
-0.22478 -0.217787 -0.333333 0 0 1
0.273605 -0.0745814 -0.333333 0 0 1
0.296635 -0.22072 0.320513 0 0 1
-0.0658147 0.371795 -0.0839064 0 1 0
0.5 0.126579 -0.00710705 1 0 0
0.42707 -0.218365 0.320513 0 0 1
-0.0572218 0.371795 -0.106336 0 1 0
0.225753 -0.371795 -0.363738 0.00745555 0.996281 0.0858454
-0.0085984 0.310448 -0.371795 0 0 1
-0.403598 -0.365047 -0.371795 0.0451493 0.109725 0.992936
-0.208743 -0.371795 0.123987 0 1 0
-0.160005 -0.299448 0.320513 0 0 1
-0.368786 -0.0565044 0.371795 -0.0539152 -0.0524386 0.997168
0.0304558 -0.294872 -0.170659 0 1 0
-0.477289 0.204592 -0.371795 0 0 1
0.278434 0.079803 0.371795 0 0 1
0.0636653 0.371795 -0.140934 0 1 0
0.322239 0.294872 0.164213 0 1 0
-0.186016 -0.371795 -0.200853 0 1 0
-0.283304 -0.228666 -0.371795 -0.053145 -0.151704 0.986996
-0.488501 -0.294872 -0.346595 0.0840666 0.995979 0.0309465
-0.0138401 0.371795 0.10009 0 1 0
0.257163 -0.371795 -0.236806 0 1 0
0.166827 0.24815 0.371795 0.0518453 0.392436 0.918317
-0.5 -0.126136 -0.272973 1 0 0
-0.448718 -0.296898 0.0072864 0.803188 0.590379 0.0796296
0.0647217 -0.00841581 -0.333333 0 0 1
-0.5 -0.010451 -0.00446271 1 0 0
-0.00081347 -0.204555 0.355294 0 1 0
-0.0289312 0.371795 -0.081817 0 1 0
-0.0185157 0.247055 0.371795 -0.0243373 0.119025 0.992593
-0.5 -0.0612393 -0.0237398 1 0 0
-0.36287 -0.371795 -0.0323617 0 1 0
-0.5 -0.0622512 -0.205777 1 0 0
-0.0556347 -0.294872 0.0261787 0 1 0
0.5 -0.103048 0.236227 1 0 0
0.5 -0.19556 -0.103156 1 0 0
0.057592 -0.139305 0.320513 0 0 1
-0.0741702 -0.115207 -0.333333 0 0 1
-0.0759248 0.191568 -0.333333 0 0 1
-0.5 0.128318 0.160222 1 0 0
