ply
format ascii 1.0
comment Generated by the CGAL library
element vertex 773
property float x
property float y
property float z
property float nx
property float ny
property float nz
end_header
-0.7574596 7.97821 4.891695 -0.1267751 0.00299166 0.991927 
-2.457391 3.684489 4.297889 -0.5030785 -0.002381188 0.8642375 
3.950539 6.586507 -2.988082 0.8108844 -0.0007466546 -0.5852059 
-1.602677 10 4.681032 -0.3224398 0.001698443 0.9465885 
-0.09309055 8.521118 4.951658 -0.01592378 0.003058123 0.9998685 
-4.165685 6.137695 -2.680338 -0.856275 0.002809046 -0.5165125 
4.735498 4.925181 -1.46647 0.9520287 0.001788816 -0.3060036 
4.091602 3.83728 -2.793107 0.8152275 0.001494657 -0.5791389 
-1.417698 8.109741 4.745559 -0.2902731 0.002211969 0.9569413 
3.15384 10 -3.812337 0.636387 0.002286414 -0.7713665 
-1.079355 7.512258 -4.832822 -0.2460974 0.003236746 -0.9692397 
3.15384 0 3.812337 0.636387 -0.002286414 0.7713665 
3.370568 8.466797 3.629177 0.6840801 0.003178239 0.7293999 
1.315781 9.425456 4.77173 0.2584479 0.003472535 0.9660189 
-2.871461 1.144613 -4.029235 -0.5849626 -0.0002355205 -0.8110602 
4.904416 4.517466 0.6803904 0.9917623 0.001342162 0.1280849 
-0.9301529 2.268677 4.865907 -0.2006334 -0.003160393 0.9796613 
-2.776786 8.391113 4.096538 -0.5700812 0.0004912087 0.8215882 
-4.803568 3.79598 1.201809 -0.966906 0.001107731 0.2551305 
-4.162048 7.731323 -2.677631 -0.8502117 0.002086067 -0.5264368 
2.521478 2.487742 4.261845 0.484093 -0.003236746 0.8750106 
-4.536062 2.02179 -1.981557 -0.9054411 -0.00299166 -0.4244613 
-4.938049 0 -0.3106798 -0.9979551 -0.003460539 -0.06382562 
0.01370937 1.243871 4.947474 -0.000994908 -0.0007224891 0.9999992 
0.8975324 9.514974 -4.866879 0.177012 0.002585106 -0.9842053 
3.735308 4.757894 3.261047 0.7563848 0.0009800183 0.6541262 
-3.86495 0.6274414 -3.088333 -0.781445 0.0002031177 -0.6239741 
-4.334644 3.122203 -2.393713 -0.8843598 0.000384689 -0.4668057 
-4.785835 9.514974 1.260105 -0.9659036 0.002585106 0.258889 
1.975244 2.253418 -4.538021 0.3889146 -0.000372711 -0.9212737 
-2.391039 2.021077 4.332246 -0.4908604 -0.001351713 0.8712372 
3.150717 1.952616 3.819503 0.6436573 -0.001221879 0.7653129 
-4.779339 0.9650676 -1.289422 -0.9651446 -0.002585704 -0.2617043 
-4.910318 9.061279 0.6246013 -0.9901085 0.003110636 0.1402689 
4.888599 3.080241 0.8114794 0.9884373 -0.0006784085 0.1516286 
0.437574 7.039083 -4.937674 0.09295167 0.002435239 -0.9956676 
-4.443265 0 2.176729 -0.8984956 -0.003346128 0.4389697 
4.953032 5.683594 -0.1906129 0.9987476 0.002455002 -0.04997073 
2.036086 10 -4.509433 0.4103878 0.002765833 -0.9119069 
-1.923544 1.639252 -4.559258 -0.3702168 -0.002295095 -0.9289426 
-0.7878806 7.01711 4.890725 -0.1463019 0.003231747 0.9892347 
4.52784 2.410634 -1.997631 0.9145142 -0.0005599383 -0.4045533 
4.407332 0.6274414 2.253221 0.8932751 -0.003403726 0.4494976 
-4.891058 7.512258 0.77377 -0.9827797 0.003236746 0.1847527 
-1.243602 3.148397 4.791825 -0.2604012 -0.00272128 0.9654967 
-4.894824 2.98289 -0.7619981 -0.9860279 -0.003231747 -0.166549 
-3.741629 9.007213 -3.242273 -0.7585452 0.003215156 -0.6516125 
-3.86495 9.372559 3.088333 -0.781445 -0.0002031177 0.6239741 
2.555155 4.517466 -4.250224 0.5166062 -2.44119e-08 -0.8562231 
-4.540897 10 1.965018 -0.9151898 -0.0008264586 0.4030222 
-3.940335 4.517466 3.011143 -0.795525 -2.44119e-08 0.6059207 
4.815531 8.577474 1.145108 0.9772145 0.002953209 0.2122338 
-4.948833 4.62087 -0.2533259 -0.9997591 0.001854058 -0.02186857 
-4.873295 4.238688 0.9097745 -0.9812051 0.0009639648 0.1929653 
-0.6893758 4.925181 4.9092 -0.1284737 0.001788816 0.9917113 
-4.887753 2.253418 0.8152478 -0.9878189 -0.00289334 0.1555809 
0.4828525 2.02179 -4.926386 0.12389 -0.00299166 -0.9922915 
-2.31523 10 4.372717 -0.4668753 0.003451844 0.8843164 
-4.918293 6.591187 -0.6209424 -0.994289 0.00245612 -0.1066926 
4.120701e-06 0 4.947813 -0.003251563 0.0002133005 0.9999947 
-4.609353 3.408813 1.824564 -0.9365183 -0.00245612 0.3506103 
-2.423296 8.971761 4.317728 -0.4844389 0.003353116 0.8748187 
2.843341 7.01711 4.054243 0.5969765 0.003022951 0.8022531 
-1.642531 4.054871 4.672856 -0.3152888 0.001634939 0.9489943 
3.741089 5.683594 3.251633 0.7622631 0.002455002 0.6472628 
-0.9249124 1.639252 -4.864863 -0.1730608 -0.003224701 -0.9849058 
4.145994 3.45988 -2.716009 0.8237545 -2.479629e-08 -0.5669466 
-0.7533138 4.28243 4.901232 -0.1513494 -3.86242e-08 0.9884803 
1.417892 5.482534 4.752137 0.287442 2.44119e-08 0.9577981 
-3.675207 3.710429 -3.31619 -0.7487745 -0.0006437161 -0.6628246 
-2.436788 7.590128 4.314658 -0.4918494 0.002332162 0.8706772 
0.4997282 2.783203 4.931443 0.09295167 -0.002435239 0.9956676 
4.280674 0.9387207 2.481672 0.8580428 -0.002099014 0.5135739 
2.577143 8.577474 -4.225985 0.5038223 0.002953209 -0.8638023 
4.404024 3.989156 -2.275195 0.8925508 -0.002464777 -0.4509401 
-4.951019 5.482534 0.06033899 -0.9999952 -0.001342162 0.002774165 
-4.86879 1.078695 0.9014726 -0.9845468 -0.003390394 0.1750889 
-4.948682 2.409871 -0.2544613 -0.9986832 -0.002332162 -0.05124998 
4.431522 7.216797 -2.220465 0.890476 0.002435239 -0.4550237 
2.383631 10 -4.335799 0.4789017 -0.0002133005 -0.8778685 
1.09523 3.636627 -4.832317 0.1986574 0.0009602766 -0.9800685 
4.345122 3.949127 2.38886 0.8767515 -0.001794101 0.4809404 
0.1915382 5.482534 4.955455 0.0402168 2.44119e-08 0.999191 
4.954408 3.296814 -0.1834835 0.9989725 -0.001805824 -0.04528555 
-2.65126 4.010519 4.181252 -0.5291964 0.0008507433 0.8484989 
1.646854 4.010519 4.677441 0.3403031 -0.0009782498 0.9403153 
-4.926665 6.289571 0.5601009 -0.9940302 0.001789326 0.1090911 
-1.166232 4.925181 -4.818234 -0.2456214 0.001788816 -0.9693642 
0.1880215 4.485728 4.954586 0.03190425 -0.001804865 0.9994893 
4.418211 2.02179 -2.232004 0.9042029 -0.00299166 -0.4270926 
-4.752951 5.791117 -1.386172 -0.9617167 0.001926908 -0.274039 
-3.323874 0.5745443 -3.667772 -0.6771534 -0.003472535 -0.7358336 
4.170531 6.363373 2.679457 0.830045 5.604549e-08 0.5576964 
-4.538794 4.775696 -1.994785 -0.9120587 -0.001804223 -0.4100557 
3.612617 2.268677 -3.389871 0.7381463 -0.003160393 -0.6746333 
4.550688 6.16272 -1.958032 0.9258039 -0.001494657 -0.3780012 
3.743731 2.253418 3.24642 0.7495366 -0.00289334 0.6619565 
3.700983 7.589365 -3.295503 0.7385581 0.00288986 -0.6741836 
4.900437 1.43514 0.7095 0.9899039 -0.00247063 0.1417186 
4.580045 0.9650676 1.878264 0.9247339 -0.002585704 0.3806054 
-4.600719 9.061279 1.826125 -0.924119 0.003110636 0.3820921 
0.3121251 7.149353 4.945978 0.07484898 0.002916248 0.9971906 
2.767653 3.489329 -4.110641 0.5678764 -0.002947173 -0.8231086 
4.47733 4.238688 2.128428 0.9072338 0.0009639648 0.4206257 
2.413483 3.862305 4.325765 0.4617273 -0.002809046 0.8870175 
-1.067843 7.01711 -4.837319 -0.2281336 0.003231747 -0.9736245 
1.894949 7.392782 4.571814 0.388517 0.001063832 0.921441 
0.3112522 3.949127 4.948723 0.06371555 -0.001794101 0.9979665 
2.239909 3.83728 -4.418763 0.435387 0.001494657 -0.9002421 
-4.717091 4.659831 1.515756 -0.9606416 -0.00238947 0.2777806 
4.269054 1.243871 -2.509343 0.8682811 -0.00321367 -0.4960621 
1.463157 8.605652 4.730926 0.3033926 0.003150284 0.9528604 
3.932232 5.017599 3.009481 0.8073825 0.001342162 0.5900268 
4.908774 10 -0.6201224 0.9919429 0.002286414 -0.1266651 
4.633543 2.783203 1.741871 0.9391149 0.0001037997 0.3436034 
4.533208 3.080241 2.001731 0.9196752 -0.0006784085 0.3926792 
-3.239833 0.9387207 3.739832 -0.6652583 -0.002099014 0.7466103 
-4.653729 4.517466 -1.713483 -0.9378594 -2.44119e-08 -0.3470154 
3.510885 1.243871 -3.492178 0.7176368 -0.00321367 -0.6964101 
4.47733 6.586507 -2.128428 0.9094037 0.0009627147 -0.4159133 
3.490316 5.71757 3.522393 0.7034584 3.86242e-08 0.7107365 
2.427891 4.256185 4.319411 0.4644063 -0.002659542 0.8856183 
3.73746 5.224304 3.257485 0.7593652 0.001804223 0.6506622 
4.84426 4.28243 1.059578 0.9770265 -3.86242e-08 0.2131179 
0.8682399 9.034932 -4.873485 0.1741414 0.002585704 -0.9847172 
-1.529815 5 4.708287 -0.3039488 -0.0002468965 0.9526883 
-0.3089834 4.010519 4.941313 -0.0549709 0.0008507433 0.9984876 
0.06865396 4.925181 -4.956891 0.003166302 0.001788816 -0.9999934 
2.472817 6.588542 -4.292288 0.473591 0.00305335 -0.8807396 
-4.693068 4.925181 -1.597057 -0.9500718 0.001788816 -0.3120263 
4.828672 10 -1.079339 0.9755542 0.003285111 -0.2197342 
-4.503091 4.256185 -2.067399 -0.896266 -0.002659542 -0.443509 
3.304597 3.45988 -3.692769 0.651583 0.0004763359 -0.7585772 
-4.840791 9.007213 -1.038682 -0.978635 0.003215156 -0.2055804 
3.969214 3.596395 2.961776 0.8111889 0.001157394 0.5847831 
-3.693002 4.982401 -3.298661 -0.7308642 -0.001342162 -0.6825216 
-3.659541 10 3.329924 -0.7385786 0.001698443 0.6741652 
0.04668447 5.743815 -4.954774 -0.01968749 0.002659542 -0.9998026 
-1.447491 2.783203 4.733773 -0.2839578 0.0001037997 0.9588367 
-4.541101 4.757894 1.991322 -0.913924 0.0009800183 0.405884 
-4.950609 6.540121 0.2396568 -0.9996743 2.479629e-08 0.02552133 
-4.934915 1.144613 -0.4081936 -0.9971583 -0.003390394 -0.07525866 
-4.632125 7.404378 -1.756334 -0.9412599 0.003198527 -0.337668 
1.122799 2.347819 -4.8257 0.2235102 -0.002152001 -0.9746992 
-1.417801 4.054871 -4.745875 -0.3027308 0.001634939 -0.9530747 
-4.535044 5.683594 2.00056 -0.9102166 0.002455002 0.4141251 
-4.942066 5.743815 -0.3577052 -0.9990659 0.002659542 -0.04312949 
-3.261623 1.838277 -3.728587 -0.6485294 -0.003153452 -0.7611831 
4.264025 0.6274414 -2.513898 0.8581641 -0.003403726 -0.5133643 
-3.444782 3.45988 -3.563627 -0.7112606 -2.479629e-08 -0.7029284 
-4.950963 5.989481 -0.001893911 -0.9999689 -0.0008507433 -0.007833129 
0.3830841 2.595622 -4.939083 0.09523785 -0.003198527 -0.9954494 
0.4310554 5.482534 -4.940386 0.08533216 2.44119e-08 -0.9963526 
-1.123685 8.360748 -4.819148 -0.2465071 0.002295095 -0.9691383 
-1.611398 2.783203 -4.680517 -0.3338634 0.0001037997 -0.9426215 
-4.335781 10 2.383616 -0.8756567 0.002286414 0.4829288 
4.404268 2.410634 2.271571 0.8830176 -0.00288986 0.469331 
-3.726666 0.4984538 3.257026 -0.7568378 -0.003262528 0.6535946 
1.079331 10 4.828636 0.2192581 0.003117237 0.9756619 
-2.601943 5.482534 4.212615 -0.533482 -0.001342162 0.8458104 
1.682332 9.288737 4.652433 0.3446415 0.0003749103 0.9387343 
-2.377667 4.62087 -4.349351 -0.4911319 0.001733976 -0.8710835 
-0.3202945 6.877798 -4.941297 -0.0458363 -0.000384689 -0.9989489 
1.954291 7.273254 -4.553157 0.4028374 0.001338179 -0.9152706 
3.711422 10 3.272063 0.7543343 -0.0008264586 0.65649 
3.201648 9.034932 3.775466 0.6477358 0.002585704 0.7618607 
4.946984 7.97821 -0.1725693 0.9981125 0.00299166 -0.06133905 
4.86837 8.855388 0.8826107 0.9829342 0.0002355205 0.1839574 
-4.405039 2.253418 -2.25629 -0.8950357 -0.000372711 -0.4459944 
-2.651158 0 4.177557 -0.5369588 -0.002286414 0.8436054 
-2.111403 9.061279 -4.476978 -0.439364 0.003110636 -0.8983037 
2.068485 2.63265 -4.497966 0.4028557 -5.98393e-05 -0.9152635 
3.230598 6.289571 -3.750666 0.6597962 0.0006437161 -0.7514443 
0.3106776 10 -4.93808 0.05389437 0.001397562 -0.9985456 
3.715566 9.288737 3.266488 0.7542503 0.0003749103 0.6565869 
4.218715 10 -2.585227 0.8502926 -0.0006732809 -0.5263098 
2.457753 2.98289 4.298945 0.47172 -0.003022951 0.8817432 
-4.838694 1.906331 1.059916 -0.9765714 -0.0025533 0.2151784 
4.721929 3.83728 -1.510799 0.946745 -6.320061e-08 -0.3219844 
4.581129 4.517466 1.878693 0.9287508 0.001342162 0.3707021 
-4.9273 0.6274414 -0.4725448 -0.9960172 -0.003403726 -0.08909579 
-1.965024 0 4.540895 -0.3986427 -0.003285111 0.9171004 
-2.036841 2.02179 -4.513618 -0.3937968 -0.003236522 -0.9191918 
0.3078902 1.639252 4.942424 0.04825475 -0.003224701 0.9988298 
4.63671 5.71757 1.739309 0.9311891 -0.00159503 0.3645332 
1.024098 3.710429 4.843086 0.2161728 -0.0006437161 0.9763549 
-0.793889 1.838277 4.889814 -0.1731135 -0.003153452 0.9848968 
3.268354 2.325439 -3.722794 0.6547036 -0.00183703 -0.7558835 
4.37273 0 -2.315243 0.8885796 0.0002787848 -0.4587224 
-0.2506571 5.482534 4.945038 -0.06002153 -0.001342162 0.9981962 
4.590164 0.485026 1.849993 0.9258398 -0.002585106 0.3779074 
0.3150474 9.061279 4.939848 0.07782271 0.003110636 0.9969624 
4.251939 2.02179 2.534451 0.8451024 -0.00299166 0.5345962 
-0.3542849 7.36735 4.938098 -0.08790646 5.98393e-05 0.9961287 
-1.25955 3.636627 -4.794408 -0.2739027 -5.604549e-08 -0.9617574 
-1.943463 3.296814 4.561006 -0.3843662 -0.001805824 0.923179 
4.918943 2.409871 -0.5744214 0.9916453 -0.000853183 -0.1289916 
-4.815321 7.216797 1.147398 -0.9747746 -0.0001037997 0.2231916 
2.448162 5.074819 4.310682 0.4845251 -0.001788816 0.8747755 
3.489154 3.79598 -3.523175 0.6960989 -0.0009855314 -0.7179452 
-0.07771299 10 -4.947193 -0.01825239 0.0004031878 -0.9998333 
4.90326 9.034932 -0.6802444 0.9903345 0.002585704 -0.138676 
4.440022 0.6274414 -2.182163 0.8973117 0.0002031177 -0.4413973 
-2.936614 3.862305 -3.989165 -0.5692592 -0.002809046 -0.8221533 
2.099812 6.877798 -4.484395 0.4410807 -0.000384689 -0.8974674 
-4.93685 1.243871 0.3243368 -0.9980884 -0.0007224891 0.06179753 
-4.118064 1.639252 2.743792 -0.8431167 -0.002295095 0.5377257 
3.241603 9.501546 -3.738795 0.6527445 0.001448062 -0.7575768 
-0.7265839 8.294271 -4.900033 -0.1561121 0.003189304 -0.9877342 
-1.528131 5.989481 -4.709231 -0.3015577 -0.0008507433 -0.9534476 
-2.167884 6.831461 4.458092 -0.4391047 0.00243005 0.8984326 
1.416998 5.989481 4.752125 0.2773924 0.0009782498 0.9607562 
-4.360019 7.972819 2.344859 -0.8876701 0.0006083836 0.4604796 
3.969992 4.517466 2.958951 0.8073825 0.001342162 0.5900268 
4.951246 6.137695 -0.2000181 0.9985321 0.00292465 -0.05408512 
4.432204 5.683594 2.219106 0.8992828 0.002455002 0.4373607 
2.98786 7.239787 -3.953491 0.6071232 0.001616554 -0.794606 
4.735498 5.074819 1.46647 0.9520287 -0.001788816 0.3060036 
-1.060071 6.510671 -4.840818 -0.2249917 0.002947173 -0.9743562 
4.957704 4.517466 -0.1199954 0.9997445 -2.44119e-08 -0.02260228 
0.2224841 8.577474 -4.944807 0.02536287 0.002953209 -0.999674 
-2.975488 9.372559 3.952481 -0.6017184 -0.0002031177 0.7987083 
-1.965024 0 -4.540895 -0.391257 0.0008264586 -0.9202811 
2.106666 0 4.476893 0.4245627 -0.002286414 0.9053956 
-3.310159 3.862305 3.687504 -0.6781616 -0.00292465 0.734907 
3.241603 0.4984538 3.738795 0.6527445 -0.001448062 0.7575768 
4.831603 2.98289 -1.093417 0.9780963 -0.003231747 -0.2081277 
-2.271428 5.71757 4.407967 -0.4585699 3.86242e-08 0.8886583 
1.216577 5.340169 -4.802958 0.2169133 0.00238947 -0.9761879 
-3.90076 7.97821 3.047375 -0.7714358 0.00299166 0.6363001 
1.394638 7.01711 -4.753412 0.2691322 0.003231747 -0.9630978 
1.80854 8.756129 4.605092 0.3690493 0.0007224891 0.9294095 
0.7800248 4.757894 4.89086 0.1723633 0.00204843 0.9850313 
-0.8699906 5.242513 -4.882511 -0.1795993 8.685775e-09 -0.9837399 
-2.383623 10 -4.335803 -0.4846005 -0.0002133005 -0.8747356 
4.955575 5.71757 0.1784288 0.9993317 3.86242e-08 0.03655416 
-4.84403 3.45988 1.045119 -0.9730222 0.0004763359 0.230711 
-0.1930067 5.945129 4.949368 -0.05619995 -0.001634939 0.9984182 
-4.838706 7.273254 -1.066499 -0.9745429 0.001338179 -0.2241974 
-4.91796 0 0.5429495 -0.9950474 0.0002787848 0.09940135 
-4.540897 0 -1.965018 -0.9151898 0.0008264586 -0.4030222 
0.9571133 0.485026 -4.855514 0.1977285 -0.002585106 -0.9802534 
-4.951757 3.45988 -0.1923767 -0.9998284 0.0004763359 -0.01851805 
-3.717142 5.791117 3.270302 -0.7466923 0.001926908 0.6651668 
-4.700336 0.5745443 1.544146 -0.9492568 0.0002515278 0.3145019 
4.142582 8.047383 2.71678 0.8370145 0.002766267 0.5471737 
-4.912573 1.639252 -0.6236814 -0.9901799 -0.003224701 -0.139762 
4.68054 8.521118 1.618681 0.9460108 0.003058123 0.3241208 
4.922927 1.43514 -0.5314795 0.9940482 -0.00247063 -0.1089128 
4.897536 1.890259 0.7377893 0.9894586 -0.002211969 0.1447988 
-4.128549 6.588542 -2.737453 -0.8492647 0.00305335 -0.5279586 
-4.944047 8.921306 -0.2030277 -0.9988133 0.0003684321 -0.04870123 
3.547137 8.577474 -3.452308 0.7028127 0.002953209 -0.7113689 
-4.839754 1.705729 -1.031192 -0.9797993 -0.0004454757 -0.1999826 
2.448162 4.925181 -4.310682 0.4845251 0.001788816 -0.8747755 
0.07772093 10 4.947212 0.01689674 0.003451844 0.9998513 
-3.604584 8.047383 3.394495 -0.734501 0.001221879 0.6786065 
-3.208459 3.168538 -3.778902 -0.6487405 -0.00243005 -0.7610058 
-4.729074 0 1.454857 -0.9565383 -0.0004031878 0.2916064 
-2.654458 4.010519 -4.179222 -0.5424239 0.0008507433 -0.8401045 
-3.457503 1.478882 -3.545878 -0.6960651 -0.003058123 -0.7179722 
-4.309124 3.596395 -2.440947 -0.8780852 0.001157394 -0.478503 
-3.266154 2.98289 3.724538 -0.6689621 -0.003231747 0.7432895 
-4.947019 9.007213 0.1978056 -0.9990151 0.003215156 0.04425487 
-0.1189263 6.919759 4.954065 -0.03627189 0.0006784085 0.9993417 
1.306998 4.054871 -4.782956 0.2476601 -6.003487e-08 -0.968847 
3.747912 8.294271 -3.239044 0.7503225 0.003189304 -0.6610643 
4.899558 2.783203 -0.7058138 0.9884848 0.0001037997 -0.1513201 
2.232045 8.971761 -4.416766 0.4527284 0.0009747406 -0.8916479 
4.625942 3.49294 1.762722 0.9363586 0.0003211451 0.3510448 
4.771617 5.989481 1.349905 0.9598276 0.0009782498 0.2805887 
1.069376 7.746582 -4.832355 0.2268726 0.000372711 -0.9739244 
-2.72477 2.783203 -4.132731 -0.5577949 0.0001037997 -0.8299788 
4.871992 4.316406 -0.8938434 0.9883095 -0.002461132 -0.1524409 
-3.42613 0.5411784 3.569625 -0.6944604 -0.0002546844 0.7195309 
4.428562 5.71757 -2.231008 0.8933311 3.86242e-08 -0.4493991 
-3.159632 6.591187 3.819934 -0.6228502 0.00245612 0.7823372 
-3.470814 9.007213 3.530661 -0.6979561 0.003215156 0.7161333 
3.161464 8.047383 3.810613 0.6311477 0.001221879 0.7756617 
3.443256 10 -3.553159 0.6926911 -0.0006732809 -0.721234 
4.739081 8.360748 -1.424064 0.9517476 0.002295095 -0.3068734 
-2.31523 0 4.372717 -0.471881 0.0006732809 0.881662 
-3.398256 6.851603 -3.599998 -0.6933229 0.00272128 -0.7206219 
2.287139 4.238688 -4.395247 0.445464 0.001854058 -0.8952979 
4.874401 6.363373 -0.9016848 0.9868462 5.604549e-08 -0.1616618 
-3.066865 5.017599 3.896783 -0.616545 0.0009768698 0.7873191 
4.871533 1.028239 0.8850417 0.9828523 -0.003353116 0.1843638 
0.3990189 1.422526 -4.9337 0.1001295 -0.002953209 -0.99497 
3.177886 0.485026 -3.793827 0.6455115 -0.002585106 -0.7637462 
-2.036841 7.97821 4.513618 -0.3937968 0.003236522 0.9191918 
3.488064 7.97821 -3.512241 0.6856033 0.00299166 -0.7279693 
4.912161 5.989481 -0.6186413 0.9930657 -0.0008507433 -0.117558 
-1.288346 5.37913 4.784902 -0.2881443 -0.001854058 0.9575852 
-3.586799 9.514974 3.409832 -0.7217071 0.002585106 0.6921937 
3.711422 10 -3.272063 0.749027 0.003285111 -0.6625314 
-2.810017 4.485728 -4.077401 -0.5477181 -0.001834222 -0.8366609 
-3.156344 2.268677 -3.818341 -0.6269535 -0.003160393 -0.7790503 
-4.911384 9.061279 -0.6161682 -0.9938859 0.003110636 -0.1103679 
-3.670821 4.28243 3.324055 -0.731604 0.00159503 0.6817279 
4.943593 7.154058 0.3533486 0.9973139 0.001742956 0.07322618 
4.760723 7.01711 -1.369474 0.9573786 0.003231747 -0.2888178 
-4.679695 0.5745443 -1.612804 -0.9478846 -0.003472535 -0.3185948 
-3.960731 0.711263 2.968948 -0.802763 -0.002865907 0.5962914 
4.05752 2.845942 -2.841118 0.8072379 -0.0001362761 -0.5902261 
2.413483 6.137695 -4.325765 0.4617273 0.002809046 -0.8870175 
-1.716966 3.408813 -4.642661 -0.3465622 -0.001755388 -0.9380254 
-4.795054 5 1.231161 -0.9698935 0.0002468965 0.2435292 
4.844742 8.294271 -1.032826 0.9759828 0.003189304 -0.2178244 
-4.553994 8.161723 -1.949791 -0.9243348 0.003153452 -0.3815695 
-3.02007 6.20402 -3.9327 -0.6006275 0.0009855314 -0.7995284 
-3.670336 8.56486 -3.3236 -0.7401846 0.00247063 -0.6723992 
-3.939605 5.989481 -3.01166 -0.7891335 0.0009782498 -0.6142209 
2.958343 2.409871 3.975225 0.5970958 -0.002332162 0.8021665 
2.33729 2.409871 -4.369357 0.471591 -0.002332162 -0.8818144 
2.290428 1.705729 4.386401 0.4704583 -0.0004454757 0.8824221 
4.949019 1.422526 0.08844196 0.9992939 -0.002953209 0.03745722 
2.051402 6.403605 -4.507607 0.4291289 -0.001157394 -0.9032425 
4.335828 0 2.383642 0.871978 -0.001397562 0.489543 
-4.946443 5.761312 0.3307468 -0.9983672 -0.0009639648 0.05711283 
-3.299718 5.224304 -3.700227 -0.6718277 0.001804223 -0.7407052 
4.218715 10 2.585227 0.8532561 0.003451844 0.5214807 
4.913632 0.485026 -0.5901675 0.9933779 -0.002585106 -0.114864 
4.389044 9.061279 2.284546 0.8933871 0.002099014 0.4492829 
-1.488429 7.36735 -4.721748 -0.2849661 5.98393e-05 -0.9585376 
4.600476 6.877798 -1.831563 0.9358926 -0.000384689 -0.3522851 
-2.451304 1.952616 -4.304996 -0.4935375 -0.002766267 -0.8697202 
0.9869987 5.482534 4.852016 0.1901055 -0.001342162 0.9817628 
-1.160769 4.497274 -4.820268 -0.2408553 0.0009807457 -0.9705606 
2.262556 7.273254 4.408099 0.4484499 0.001338179 0.893807 
-3.061093 7.039083 -3.898949 -0.6138226 0.002435239 -0.7894403 
4.944345 8.360748 -0.200763 0.998163 0.002295095 -0.06054236 
0.8684582 5.482534 -4.874629 0.1846554 -0.001342162 -0.9828024 
1.919806 1.705729 -4.560803 0.3800365 -0.0004454757 -0.9249714 
4.344328 6.591187 2.387882 0.8851904 0.00245612 0.4652224 
-4.538947 6.703186 -1.994438 -0.9121504 0.001805824 -0.4098517 
-4.26281 8.391113 -2.514083 -0.8557627 0.0004912087 -0.5173683 
4.659989 4.208883 1.672278 0.9391212 -0.001926908 0.3435807 
0.1067175 1.705729 -4.95246 0.03108524 -0.003189304 -0.9995117 
-4.864543 9.458821 -0.9141341 -0.9841219 0.003472535 -0.1774602 
4.514307 6.315511 2.032647 0.9149851 0.002381188 0.4034807 
-4.679695 9.425456 1.612804 -0.9478846 0.003472535 0.3185948 
1.406058 7.589365 4.751906 0.2955568 0.00288986 0.9553208 
4.222028 5.074819 2.598068 0.8460189 -0.001788816 0.5331498 
1.965004 10 4.540864 0.3989554 0.001053068 0.9169697 
-4.585059 3.684489 -1.884518 -0.9227017 -0.00245612 -0.385507 
-4.658834 2.487742 1.678226 -0.9502217 -0.003236746 0.3115577 
-4.425355 7.589365 2.215423 -0.894647 0.0005599383 0.4467734 
-3.37939 4.238688 -3.627177 -0.688682 0.0009639648 -0.7250629 
-1.590485 6.50706 4.687951 -0.3263728 -0.0003211451 0.9452411 
4.938699 0.5745443 0.2945985 0.9983726 0.0002515278 0.05702833 
-3.97466 5.791117 2.964418 -0.7997717 0.0018013 0.6003016 
2.577143 1.422526 4.225985 0.5038223 -0.002953209 0.8638023 
-0.2469538 6.50706 -4.944243 -0.04451272 -0.0003211451 -0.9990088 
-2.435498 6.010844 -4.31167 -0.5136262 0.002306673 -0.8580109 
3.969049 9.034932 -2.958266 0.801029 0.002585704 -0.59862 
3.711422 0 3.272063 0.749027 -0.003285111 0.6625314 
-3.90076 2.02179 -3.047375 -0.7714358 -0.00299166 -0.6363001 
3.30789 1.078695 3.680039 0.6741925 -0.0003684321 0.7385556 
-0.2505839 0.9650676 -4.943875 -0.04935048 -0.002585704 -0.9987782 
-2.598315 6.50706 -4.213702 -0.5202829 -0.0003211451 -0.8539939 
-4.431936 3.45988 2.216946 -0.8850775 0.0004763359 0.4654435 
-1.217108 8.756129 -4.795449 -0.2496534 0.0007224891 -0.968335 
4.879497 1.705729 -0.8228543 0.9846129 -0.0004454757 -0.174749 
-4.87576 4.256185 -0.8825746 -0.9784043 -0.002659542 -0.2066831 
-2.27253 5.242106 4.407104 -0.4624689 -0.0009800183 0.8866349 
3.8517 6.010844 3.112323 0.7934124 0.002306673 0.60868 
3.571779 4.208883 3.4392 0.7182275 -0.0018013 0.695806 
1.676016 0 -4.655322 0.3447617 0.0008264586 -0.9386899 
-4.678361 1.144613 -1.622633 -0.9471146 -0.003390394 -0.3208775 
4.959048 5.242513 0.06031054 0.9999686 8.685775e-09 0.007916379 
-0.1060472 8.294271 -4.947255 -0.0128443 0.0004454757 -0.9999174 
4.40855 10 -2.246272 0.8902597 0.003285111 -0.4554413 
4.911404 8.047383 -0.6274836 0.9930987 0.001221879 -0.1172753 
4.904416 5.482534 -0.6803904 0.9917623 -0.001342162 -0.1280849 
1.936981 4.485728 -4.557356 0.4129341 -0.001834222 -0.910759 
-1.587335 4.517466 4.690053 -0.3116539 0.001342162 0.9501947 
-4.309542 4.517466 -2.438047 -0.874966 0.001342162 -0.4841824 
-3.338058 5.945129 3.666371 -0.6853217 6.003487e-08 0.7282405 
-3.066865 4.982401 -3.896783 -0.616545 -0.0009768698 -0.7873191 
-3.035746 7.512258 3.912214 -0.5899436 0.003236746 0.807438 
4.830317 1.838277 1.099356 0.9720834 -0.003153452 0.2346141 
0.5900716 3.862305 -4.918227 0.1478305 -0.002809046 -0.9890087 
4.657674 6.16272 1.687817 0.9336416 -0.001494657 0.3582053 
4.772107 5.482534 1.349156 0.9627148 2.44119e-08 0.2705185 
0.7800834 1.608887 -4.887088 0.1468445 -0.0004912087 -0.9891595 
-3.304051 5.683594 -3.694875 -0.6751288 0.002455002 -0.7376958 
-4.257333 7.273254 2.534878 -0.8638849 0.001338179 0.5036876 
-2.309411 9.372559 -4.375186 -0.4664936 -0.0002031177 -0.8845245 
1.954305 3.636627 4.553187 0.4153526 0.0009602766 0.90966 
3.304597 6.540121 3.692769 0.651583 -0.0004763359 0.7585772 
-4.952261 7.030741 0.0473721 -0.9999406 -0.0002111923 -0.01089753 
2.8577 6.877798 -4.050798 0.5851439 0.001791163 -0.8109275 
1.748927 0 4.628413 0.3523596 -0.003451844 0.9358583 
-0.9249124 8.360748 4.864863 -0.1730608 0.003224701 0.9849058 
4.475796 3.489329 -2.118781 0.9149171 -0.002720124 -0.4036327 
-2.652657 5 4.179918 -0.5313236 -0.0002468965 0.8471689 
1.532334 7.149353 4.712969 0.3204887 0.002916248 0.9472479 
1.325674 1.144613 -4.771016 0.2607745 -0.003390394 -0.9653938 
-4.805891 2.63265 -1.189011 -0.9745393 -5.98393e-05 -0.2242167 
4.021533 9.514974 2.884328 0.8151675 0.002585106 0.5792195 
-1.558123 9.514974 -4.697268 -0.3190277 0.002585106 -0.9477419 
-3.726424 6.363373 -3.265667 -0.736787 -0.0009602766 -0.6761242 
-3.272058 0 3.711426 -0.6661061 0.0008264586 0.7458565 
0.08776271 9.425456 4.949039 0.01008919 0.003472535 0.9999431 
-0.6971582 10 4.898461 -0.1364682 -0.0006732809 0.9906442 
1.965393 3.133138 4.548399 0.4109607 -0.0003081221 0.911653 
3.952482 8.56486 -2.982543 0.7991859 0.00247063 -0.6010788 
2.106304 5.989481 4.480572 0.4186785 -0.0008507433 0.9081342 
4.005108 5 -2.909881 0.8058759 -0.0002468965 -0.5920845 
-2.845016 10 -4.048042 -0.5758824 0.003346128 -0.8175257 
-4.168653 0.5745443 2.664559 -0.8412207 0.0002515278 0.5406918 
4.602938 5 1.822432 0.9278032 0.0002468965 0.3730699 
-2.953419 7.871908 -3.978498 -0.6011196 0.002902156 -0.7991538 
4.046901 0.9927877 2.849133 0.8185061 -0.00151491 0.5744959 
3.000937 0.9927877 3.937829 0.6026973 -0.003215156 0.7979635 
-4.717091 5.340169 -1.515756 -0.9606416 0.00238947 -0.2777806 
-4.603133 8.360748 1.825795 -0.9243141 0.003224701 0.3816189 
0.7851595 6.16272 -4.891439 0.1769135 -0.001494657 -0.9842253 
2.451445 0 4.297833 0.4915654 0.0006732809 0.8708404 
-1.155043 0 4.811115 -0.2377955 0.0006732809 0.971315 
-3.586799 0.485026 -3.409832 -0.7217071 -0.002585106 -0.6921937 
2.505021 2.02179 4.269344 0.4830252 -0.00299166 0.8756014 
-4.925702 6.831461 0.5583602 -0.9938558 0.00243005 0.1106559 
4.888956 8.391113 0.76829 0.986124 0.0004912087 0.1660096 
-4.948854 0.485026 -0.03032765 -0.9999411 -0.002585106 -0.01054502 
-3.021321 5.71757 -3.932071 -0.6088325 3.86242e-08 -0.7932988 
-1.230467 10 4.792369 -0.2476833 0.003460539 0.9688349 
1.095224 2.726746 -4.832285 0.2120803 -0.001338179 -0.9772514 
2.336183 0.5411784 4.361518 0.4697145 -0.0002546844 0.8828183 
4.537589 8.093669 -1.986623 0.9165416 0.0025533 -0.3999313 
2.285307 3.408813 4.390859 0.4613952 -0.001755388 0.887193 
-0.3882007 0 4.932539 -0.07968899 -0.002765833 0.9968159 
-4.880195 8.360748 0.8188707 -0.9827042 0.002295095 0.185168 
2.372803 5.340169 -4.349514 0.4528666 0.00238947 -0.8915751 
-2.52436 8.391113 -4.256732 -0.5006665 0.0004912087 -0.8656402 
-4.793756 3.122203 -1.240528 -0.9726659 0.000384689 -0.2322088 
-4.5882 5.273438 1.881898 -0.9253166 0.0009759053 0.3791942 
1.599704 0.711263 4.684335 0.3190394 -0.002865907 0.9477371 
0.3732117 4.208883 -4.944332 0.07831234 -0.0018013 -0.9969273 
-3.039162 0.6274414 3.907055 -0.6089188 -0.003403726 0.7932253 
2.215101 1.890259 -4.429844 0.4434714 -0.002211969 -0.8962858 
4.62447 0.9650676 -1.766061 0.9346443 -0.002585704 -0.3555745 
4.95139 2.253418 -0.1962214 0.9995291 -0.00289334 -0.03054758 
-0.04526434 8.855388 -4.947523 -0.003484541 0.0002355205 -0.9999939 
1.838877 5.340169 4.60076 0.3983024 0.00238947 0.9172511 
-1.380388 10 -4.751338 -0.2808828 0.001053068 -0.9597415 
0.4651311 7.512258 4.929993 0.1226789 0.003236746 0.9924411 
4.947673 9.372559 0.1487358 0.99933 0.003403726 0.03644082 
3.737211 3.296814 3.257772 0.7592196 -0.001805824 0.6508319 
-4.766448 8.109741 1.345796 -0.9635084 0.002211969 0.2676691 
-1.468779 3.49294 4.727496 -0.2915576 0.0003211451 0.9565532 
-2.401005 5.340169 -4.33401 -0.5101237 0.00238947 -0.8600977 
-3.62832 9.514974 -3.365616 -0.7361442 0.002585106 -0.6768197 
-2.817758 0.9927877 4.070917 -0.5726647 -0.003215156 0.8197834 
3.213334 0 -3.762329 0.6503835 -0.002765833 -0.759601 
4.729095 0 1.454856 0.954467 0.0006732809 0.2983157 
1.527348 1.639252 4.71058 0.2951376 -0.003224701 0.9554493 
-4.531452 7.746582 -2.00517 -0.9180934 0.00289334 -0.3963536 
2.655996 1.639252 -4.179479 0.5480586 -0.003224701 -0.8364338 
0.1622246 0.6274414 -4.947249 0.02637954 -0.003403726 -0.9996462 
4.934637 1.838277 0.3649458 0.9971682 -0.0008047276 0.07519922 
-1.930653 7.746582 -4.563698 -0.3979385 0.00289334 -0.9174075 
-4.720262 2.850647 1.488829 -0.9544203 -0.002086067 0.2984588 
-4.351325 0.485026 2.357553 -0.8813351 -0.002585106 0.4724846 
0.6971479 10 -4.898443 0.1398346 0.003346128 -0.9901692 
-4.510209 2.63265 2.054939 -0.9121884 -0.00244426 0.4097638 
-4.874697 0.6274414 -0.844373 -0.9853873 0.0002031177 -0.1703287 
-4.537618 0.711263 -1.971141 -0.9152417 -0.0003749103 -0.402905 
-2.286855 1.639252 4.388296 -0.4797775 -0.002295095 0.8773872 
-4.766448 1.890259 -1.345796 -0.9635084 -0.002211969 -0.2676691 
4.735616 6.877798 1.466068 0.9520573 0.001791163 0.3059145 
1.971826 4.757894 4.54322 0.4119155 0.00204843 0.9112198 
-1.067317 1.243871 -4.835541 -0.2034695 -0.00321367 -0.979076 
-3.711398 0 -3.272034 -0.748806 -0.001053068 -0.6627884 
4.880305 5.074819 -0.8525762 0.9897037 -0.002045728 -0.1431166 
2.39755 9.425456 -4.327735 0.4868042 -0.0002515278 -0.8735111 
-0.7740145 0 4.886916 -0.158045 -0.003285111 0.9874265 
-2.624403 1.478882 4.197317 -0.5253626 -0.001445814 0.8508772 
4.407332 9.372559 -2.253221 0.8932751 0.003403726 -0.4494976 
4.911435 6.877798 -0.6299291 0.9940996 -0.000384689 -0.1084704 
-3.272058 10 -3.711426 -0.6661061 -0.0008264586 -0.7458565 
3.037965 8.391113 3.90678 0.605212 0.0004912087 0.7960641 
-4.429734 6.591187 2.20901 -0.8947555 0.001755388 0.4465529 
4.781072 2.021077 -1.297412 0.9648694 -0.003153452 -0.2627109 
4.155971 7.149353 -2.688009 0.8383368 0.002086067 -0.5451487 
4.659989 5.791117 -1.672278 0.9391212 0.001926908 -0.3435807 
-0.2804734 9.514974 4.940993 -0.05226261 0.002585106 0.99863 
-4.772872 8.56486 1.318093 -0.9643362 0.00247063 0.264669 
-4.207313 5.691885 2.619675 -0.8568323 -0.001641768 0.5155926 
3.969821 8.093669 -2.960346 0.8060765 0.001730127 -0.5918088 
-1.459125 0.9927877 4.729262 -0.2934457 -0.00151491 0.9559745 
-2.323053 6.403605 4.380159 -0.4799224 0.0009790179 0.8773104 
4.739081 1.639252 1.424064 0.9517476 -0.002295095 0.3068734 
-2.929695 4.238688 3.999197 -0.5831739 0.0009639648 0.8123468 
-4.946443 4.238688 -0.3307468 -0.9983672 0.0009639648 -0.05711283 
4.816881 3.168538 1.171311 0.9721501 -0.00243005 0.2343465 
0.811805 4.054871 4.88615 0.1808918 0.001634939 0.9835017 
-3.913301 2.487742 -3.034345 -0.7722111 -0.003236746 -0.6353578 
4.802697 3.949127 1.233221 0.9688117 -0.001794101 0.2477915 
4.647177 1.890259 -1.712876 0.9368266 -0.002211969 -0.3497871 
4.340946 1.639252 -2.382969 0.8832224 -0.003224701 -0.4689433 
4.942087 9.372559 -0.2267534 0.998965 -0.0002031177 -0.04548382 
-0.4809416 2.726746 4.931449 -0.08792589 -0.001338179 0.9961261 
-4.521147 8.855388 -2.01971 -0.9100726 0.003390394 -0.414435 
4.84502 0 1.003359 0.9789751 -0.003451844 0.2039509 
4.681046 0 -1.602676 0.9464282 -0.003346128 -0.322897 
2.999931 6.591187 3.937344 0.6063037 0.001755388 0.7952313 
-3.548959 2.783203 3.450903 -0.7107573 0.0001037997 0.7034373 
-2.40999 1.533203 -4.327078 -0.4823082 -0.003178239 -0.8759958 
2.282423 3.45988 -4.398573 0.4424618 0.0004763359 -0.8967872 
0.6201212 0 -4.908798 0.1285585 0.0002133005 -0.9917019 
-2.436788 2.409871 -4.314658 -0.4918494 -0.002332162 -0.8706772 
-0.563977 3.989156 -4.919764 -0.08879386 -0.002306673 -0.9960474 
1.532334 2.850647 -4.712969 0.3204887 -0.002916248 -0.9472479 
4.815727 2.595622 -1.161926 0.9761587 -0.003198527 -0.2170342 
3.605399 0.9387207 3.391526 0.7185667 -0.003110636 0.6954511 
2.973961 4.925181 3.9623 0.623493 0.002045728 0.7818263 
-4.460097 7.149353 2.145932 -0.9000515 0.002086067 0.4357785 
-2.105697 8.360748 4.482008 -0.4125599 0.003224701 0.9109247 
4.919541 5.482534 0.560664 0.9924577 -0.001342162 0.1225803 
1.09523 6.363373 4.832317 0.1986574 -0.0009602766 0.9800685 
4.90603 0.485026 0.6503445 0.9907346 -0.002585106 0.1357877 
4.94233 0 -0.2330705 0.9989393 -0.003451844 -0.04591778 
-0.3710238 9.034932 -4.936297 -0.07621876 0.002585704 -0.9970878 
3.432504 7.404378 -3.566967 0.6756658 0.00272128 -0.737203 
-2.468943 6.016337 4.296743 -0.5130879 -0.001475025 0.8583348 
1.141261 1.478882 -4.819243 0.2332337 -0.003058123 -0.9724159 
-0.6336842 8.756129 4.906743 -0.1243461 0.0007224891 0.9922386 
-4.942799 5.074819 0.3797642 -0.9978213 -0.001788816 0.06595016 
-4.49517 6.137695 2.081007 -0.8949211 0.002809046 0.4462157 
3.740091 2.783203 3.252779 0.7493402 -0.002435239 0.6621807 
-1.782279 7.149353 4.617463 -0.3577984 0.002086067 0.9337965 
4.86987 5.340169 0.9125957 0.9878818 0.00238947 0.1551899 
-4.36768 4.517466 2.332296 -0.877639 0.001342162 0.4793204 
2.343822 1.144613 4.357353 0.4786972 -0.0002355205 0.8779801 
0.7252665 8.294271 4.894953 0.1380659 0.0004454757 0.990423 
-3.297137 4.757894 -3.703491 -0.6684367 0.0009800183 -0.7437684 
-4.632593 6.289571 1.767716 -0.935671 0.001789326 0.352869 
-2.970776 0 3.956696 -0.6013676 -0.003451844 0.798965 
4.762458 8.161723 1.363649 0.9648694 0.003153452 0.2627109 
-3.213042 2.595622 3.770631 -0.6621595 -0.003198527 0.7493561 
3.512105 2.98289 3.493575 0.6998183 -0.003231747 0.7143136 
4.803448 4.477539 -1.233316 0.9675639 -0.0009741628 -0.2526247 
1.155045 10 -4.811094 0.2309695 0.0004031878 -0.9729609 
0.1150661 2.253418 -4.95394 0.03227365 -0.00289334 -0.9994749 
3.308715 7.652181 3.687881 0.6654284 0.002152001 0.7464586 
-3.523284 7.239787 3.482778 -0.7204728 0.0008917711 0.6934826 
-1.958442 0.711263 -4.543114 -0.391375 -0.0003749103 -0.9202312 
4.262747 7.512258 -2.519952 0.8457534 0.003236746 -0.5335641 
-2.275842 4.775696 4.404584 -0.4665152 -0.001804223 0.8845114 
-4.890017 0.6274414 0.7676708 -0.9868827 -0.003403726 0.1614027 
3.273154 1.446126 -3.716103 0.6615143 -0.00282823 -0.7499272 
2.470529 8.855388 4.291444 0.4926654 0.003390394 0.8702122 
-4.263518 6.866862 2.524503 -0.8683304 0.0003081221 0.4959861 
-0.8548638 9.288737 -4.875577 -0.1769995 0.002865907 -0.9842068 
-4.681061 0 -1.60269 -0.9456937 -0.003451844 -0.3250408 
3.078878 3.710429 -3.87618 0.6145007 -0.0006437161 -0.7889161 
3.163545 3.122203 -3.809329 0.6242498 0.000384689 -0.7812247 
2.655952 3.408813 4.18582 0.519886 -0.00245612 0.8542321 
-2.901879 2.021077 -4.008057 -0.5793208 -0.001351713 -0.8150985 
4.185891 0.5745443 2.637395 0.8474069 0.0002515278 0.5309439 
-4.308521 9.034932 2.437486 -0.8697396 0.002585704 0.4935041 
3.906059 7.273254 -3.048475 0.7939441 0.001338179 -0.6079894 
4.908324 3.296814 -0.6481662 0.9898975 0.0005844671 -0.1417833 
-0.4809416 7.273254 -4.931449 -0.08792589 0.001338179 -0.9961261 
3.51643 1.838277 -3.489307 0.7189596 -0.003153452 -0.6950447 
4.949886 8.756129 0.1423219 0.9998603 0.00321367 0.01640495 
3.953487 7.216797 2.978889 0.7933168 -0.0001037997 0.608809 
-3.70553 2.253418 -3.280894 -0.7560022 -0.000372711 -0.654569 
4.580045 9.034932 -1.878264 0.9247339 0.002585704 -0.3806054 
-3.744839 7.652181 -3.244109 -0.7537374 0.002152001 -0.6571723 
3.564652 7.978922 3.44023 0.7189596 0.003153452 0.6950447 
-2.693552 7.030741 -4.155949 -0.5265939 -0.0002111923 -0.850117 
0.1770956 6.510671 -4.952364 0.02438939 0.002947173 -0.9996982 
3.287723 2.726746 -3.706935 0.6566418 -0.001338179 -0.7542014 
-2.453007 2.607219 4.298264 -0.5009406 -0.001063832 0.865481 
-1.86738 5.743815 4.589647 -0.3497469 0.002659542 0.9368404 
4.666883 2.726746 -1.66454 0.9387589 -0.001338179 -0.3445722 
3.7525 8.855388 -3.230906 0.762482 0.003390394 -0.6470005 
4.86837 1.144613 -0.8826107 0.9829342 -0.0002355205 -0.1839574 
-4.755672 2.253418 1.370692 -0.9577571 -0.000372711 0.2875781 
4.674846 6.540121 1.643996 0.9364339 -0.0004763359 0.3508438 
-2.899231 5.340169 4.017826 -0.5610396 0.00238947 0.8277855 
0.9703991 2.63265 4.854756 0.2120613 -5.98393e-05 0.9772564 
2.951721 9.458821 3.970886 0.5988032 0.0002546844 0.8008961 
-0.7877151 8.756129 -4.888878 -0.1712408 0.00321367 -0.9852239 
4.002846 0 2.908238 0.8082248 -0.002286414 0.5888696 
4.702021 1.533203 -1.556489 0.9508551 -0.003178239 -0.3096199 
-4.691451 5.945129 1.604744 -0.9513845 6.003486e-08 0.3080058 
0.6331505 2.027181 4.913849 0.123879 -0.002875061 0.9922932 
4.899117 4.726562 -0.7145808 0.9901861 -0.001413888 -0.1397482 
-4.708619 7.978922 -1.521293 -0.9542248 0.001351713 -0.2990875 
-0.3089834 5.989481 -4.941313 -0.0549709 -0.0008507433 -0.9984876 
4.855477 7.731323 0.9574464 0.9843011 0.002086067 0.1764848 
-4.774887 0.9927877 1.302085 -0.9643921 -0.00151491 0.2644724 
2.655996 8.360748 4.179479 0.5480586 0.003224701 0.8364338 
-4.697844 4.256185 1.575509 -0.9569526 -0.002659542 0.2902321 
2.451445 0 -4.297833 0.4964887 -0.003451844 -0.8680363 
-3.369967 1.078695 -3.627822 -0.675379 -0.003390394 -0.737463 
4.945846 8.391113 0.2717309 0.9988396 0.003206477 0.04805311 
-3.933801 3.989156 -3.016149 -0.7880524 -0.002464777 -0.6156031 
-3.798955 6.743876 -3.184081 -0.7551071 0.0008925151 -0.6556008 
4.541739 4.208883 -1.970944 0.919787 -0.001926908 -0.3924132 
0.184731 2.960917 -4.953581 0.03257153 -0.002435239 -0.9994664 
2.001295 1.890259 4.530454 0.4079207 -0.002211969 0.9130147 
1.043852 1.890259 -4.841546 0.2066417 -0.002211969 -0.9784142 
-2.703835 4.517466 4.147952 -0.5381666 0.001342162 0.8428375 
2.405362 5.761312 4.33485 0.4767613 -0.0009639648 0.8790323 
2.874575 4.256185 -4.035937 0.6035967 -0.002659542 -0.7972853 
-1.173411 2.63265 -4.815378 -0.2315787 -0.00244426 -0.9728131 
4.37451 6.289571 -2.334395 0.8840668 0.001789326 -0.4673572 
-1.014229 1.422526 4.844786 -0.2240427 -0.002953209 0.9745749 
-0.7033177 9.372559 4.897038 -0.1425092 -0.0002031177 0.9897935 
0.3116524 6.591187 4.947529 0.08150843 0.00245612 0.9966697 
-0.7670877 0.711263 -4.887428 -0.1502271 -0.0003749103 -0.9886515 
4.587233 2.409871 1.86635 0.9311276 -0.000853183 0.3646926 
3.24738 5.945129 3.740056 0.6424963 -0.001634939 0.766287 
-3.786303 2.850647 -3.187694 -0.763401 -0.002086067 -0.6459215 
-0.9946457 2.021077 -4.853103 -0.2016078 -0.003153452 -0.9794613 
-4.541893 4.28243 1.990168 -0.9156986 -3.86242e-08 0.4018657 
4.720842 4.238688 -1.513386 0.9492831 0.0009639648 -0.3144213 
2.427891 5.743815 -4.319411 0.4644063 0.002659542 -0.8856183 
-1.409636 7.239787 4.749336 -0.2972674 0.0008917711 0.9547939 
1.532577 5 4.716788 0.3165362 -8.685775e-09 0.9485804 
4.647177 8.109741 1.712876 0.9368266 0.002211969 0.3497871 
-0.3106743 0 -4.938026 -0.06145004 -0.002286414 -0.9981076 
4.544295 1.608887 -1.959987 0.9138582 -0.0004912087 -0.4060332 
3.840984 8.855388 3.118793 0.7727297 0.0002355205 0.6347352 
-4.943531 7.392782 -0.2319831 -0.9991672 0.001063832 -0.04078975 
-2.677336 9.514974 -4.162206 -0.5446987 0.002585106 -0.8386279 
1.871469 0.5411784 -4.580196 0.380816 -0.0002546844 -0.9246508 
4.0307 2.63265 2.874681 0.8235641 -5.98393e-05 0.5672233 
-0.5084419 6.591187 4.923795 -0.1023969 0.001755388 0.9947421 
-4.948346 4.485728 0.1877951 -0.9998982 -0.001834222 0.01414837 
-3.909556 10 3.032559 -0.7862099 -0.0008264586 0.617959 
0.08401024 0.6274414 4.946572 0.01733146 0.0002031177 0.9998498 
-2.280021 7.216797 4.401177 -0.452954 0.002435239 0.8915306 
-4.372688 0 -2.315217 -0.8830329 -0.001698443 -0.4693081 
-4.186777 3.148397 2.641786 -0.8507523 -0.00272128 0.5255598 
0.9186187 3.122203 4.865711 0.2040322 0.000384689 0.9789641 
4.764703 3.489329 1.361937 0.9583062 -0.002947173 0.285728 
-4.545476 0.6274414 1.959651 -0.9157388 -0.003403726 0.4017597 
-0.341009 0.485026 4.937185 -0.07331103 -0.002585106 0.9973058 
4.683293 7.239787 1.619928 0.9433267 0.001616554 0.3318617 
-4.681061 10 1.60269 -0.9456937 0.003451844 0.3250408 
2.503358 6.20402 4.280205 0.4956839 0.0009855314 0.8685024 
4.913632 9.514974 0.5901675 0.9933779 0.002585106 0.114864 
-3.969111 6.851603 2.967375 -0.7961548 0.002931993 0.6050859 
4.930143 7.589365 -0.4307662 0.99629 0.0005599383 -0.08605786 
-2.865607 5.37913 -4.042699 -0.554162 -0.001854058 -0.8324068 
-2.37262 0.5411784 -4.343973 -0.472885 -0.003472535 -0.8811173 
-0.8665457 3.168538 4.880923 -0.1728422 -0.00243005 0.9849465 
3.265106 7.746582 -3.719449 0.6680016 0.000372711 -0.7441597 
-4.047378 7.392782 2.859759 -0.817232 0.00288986 0.5763016 
-3.474502 7.589365 -3.52416 -0.7013679 0.0005599383 -0.7127993 
-1.637624 0.4984538 -4.669557 -0.3280239 -0.001448062 -0.9446684 
4.236044 8.360748 -2.557886 0.8455304 0.002295095 -0.5339224 
4.939009 4.925181 -0.3878917 0.994202 0.002045728 -0.107509 
2.995019 1.078695 -3.938869 0.5991426 -0.0003684321 -0.8006423 
0.6041207 0.5745443 -4.910456 0.1196041 0.0002515278 -0.9928216 
2.315228 10 4.372697 0.4688783 0.003346128 0.8832564 
-1.947166 5.242106 -4.560208 -0.3883752 -0.0009800183 -0.9215008 
4.939009 5.074819 0.3878917 0.994202 -0.002045728 0.107509 
3.874656 1.478882 3.084578 0.7805622 -0.003058123 0.6250707 
3.00814 3.45988 3.93802 0.6230462 0.0004763359 0.7821849 
3.861414 0 -3.09358 0.7820193 -0.0004031878 -0.6232541 
1.992214 7.039083 4.531088 0.3995279 0.0001695462 0.916721 
-4.871471 6.137695 0.8977252 -0.9777748 0.002809046 0.2096392 
-1.44453 8.56486 4.736139 -0.2932497 0.00247063 0.9560327 
-4.803568 6.20402 -1.201809 -0.966906 -0.001107731 -0.2551305 
0.3882014 0 4.932588 0.0752421 -0.00284677 0.9971612 
-0.563977 6.010844 4.919764 -0.08879386 0.002306673 0.9960474 
-3.743038 1.078695 -3.236433 -0.7614419 -0.0003684321 -0.6482331 
-2.002312 4.517466 4.536956 -0.4052194 -2.44119e-08 0.9142195 
4.767874 6.010844 -1.356216 0.9593313 0.002464777 -0.2822719 
-4.088196 1.243871 -2.794329 -0.8185465 -0.00321367 -0.5744312 
1.664955 1.243871 4.663641 0.3245758 -0.00321367 0.9458542 
4.918385 0.9650676 -0.560518 0.9937086 -0.002585704 -0.1119669 
0.6487193 3.636627 4.914466 0.1512028 -5.604549e-08 0.9885027 
0.774003 0 4.88688 0.1553041 -0.003117237 0.9878618 
-4.169944 8.756129 -2.662564 -0.8448604 0.0007224891 -0.5349864 
-4.893655 3.79598 0.799435 -0.9851534 -0.0009855314 0.1716732 
3.228419 5.273438 -3.75357 0.6485615 0.001413888 -0.7611609 
0.3108949 3.408813 4.947577 0.04405012 -0.00245612 0.9990263 
0.6201212 10 4.908798 0.1285585 -0.0002133005 0.9917019 
3.803355 1.243871 -3.164202 0.7711468 -0.0007224891 -0.6366569 
1.957693 3.168538 -4.546021 0.388517 -0.001063832 -0.921441 
3.488064 2.02179 3.512241 0.6856033 -0.00299166 0.7279693 
-4.730356 5.37913 1.476092 -0.9629114 -0.001854058 0.2698115 
1.27742 5.743815 -4.787501 0.2295718 0.002659542 -0.9732881 
-4.289585 3.710429 2.470571 -0.8617676 -0.0006437161 0.5073028 
-3.879264 3.411458 -3.080564 -0.7645556 -0.00305335 -0.6445505 
-4.324346 6.20402 2.412187 -0.879493 -0.001107731 0.4759105 
2.648691 0.9387207 4.181601 0.5230399 -0.003110636 0.8523026 
0.9571133 9.514974 4.855514 0.1977285 0.002585106 0.9802534 
-3.856443 4.659831 -3.113343 -0.7605041 -0.002296097 -0.6493291 
1.417892 4.517466 -4.752137 0.287442 -2.44119e-08 -0.9577981 
-3.158448 9.061279 -3.811241 -0.6489597 0.003110636 -0.7608165 
-4.780468 4.517466 -1.289712 -0.9678887 0.001342162 -0.2513757 
4.40855 10 2.246272 0.8938979 -0.0008264586 0.4482698 
1.364579 2.02179 4.758188 0.2500968 -0.00299166 0.9682162 
-0.4656315 10 -4.925837 -0.09524627 0.003117237 -0.9954489 
4.795429 0.9387207 -1.226869 0.9722161 -0.003110636 -0.2340645 
-0.4597938 8.391113 4.92755 -0.1037628 0.0004912087 0.994602 
2.879547 1.608887 4.030315 0.5757776 -0.003206477 0.8176001 
4.925188 1.028239 0.4820438 0.9954273 -0.0009747406 0.09551767 
4.87798 3.684489 -0.8461252 0.9865807 -0.002381188 -0.1632571 
-4.634039 1.422526 1.739624 -0.9429089 -0.002953209 0.3330378 
-4.3065 5.522461 -2.441695 -0.868261 0.0007823346 -0.4961071 
-2.658938 8.047383 -4.176801 -0.5289547 0.001221879 -0.8486491 
4.540861 0 -1.965009 0.9185349 -0.001053068 -0.3953384 
-4.460097 2.850647 -2.145932 -0.9000515 -0.002086067 -0.4357785 
4.844631 2.253418 1.041304 0.975724 -0.00289334 0.2189849 
-4.893655 6.20402 -0.799435 -0.9851534 0.0009855314 -0.1716732 
1.646854 4.982401 -4.677441 0.3343941 -0.0009768698 -0.9424328 
-1.587335 5.482534 -4.690053 -0.3116539 -0.001342162 -0.9501947 
-2.346071 4.256185 4.364392 -0.4989109 -0.002659542 0.8666492 
-2.111141 3.949127 -4.486627 -0.4266172 -0.001794101 -0.9044305 
-3.060127 6.010844 3.899688 -0.6102 0.002464777 0.7922435 
-4.936262 7.01711 -0.3934399 -0.9986737 0.003022951 -0.05139705 
4.942901 6.510671 -0.299529 0.9961995 0.002720124 -0.08705859 
-3.443237 0 -3.55315 -0.6951354 -0.003346128 -0.718871 
4.818249 5.242513 -1.174849 0.9705215 8.685775e-09 -0.2410144 
-0.3710238 0.9650676 4.936297 -0.07621876 -0.002585704 0.9970878 
3.793633 7.731323 3.17816 0.7775275 0.002086067 0.6288455 
4.571162 10 -1.893439 0.923403 0.002765833 -0.3838218 
4.859854 6.137695 0.9586242 0.9862853 0.002809046 0.1650253 
0.6019826 6.586507 -4.920804 0.1361157 0.0009627147 -0.9906925 
-4.948928 7.871908 -0.09627638 -0.9994493 0.0003733202 -0.03317985 
-4.908051 7.392782 -0.6859462 -0.9902421 0.00288986 -0.139328 
3.00541 7.589365 3.931841 0.6064999 0.0005599383 0.7950833 
-2.490855 6.919759 4.283987 -0.5132219 0.0006784085 0.8582557 
2.874575 5.743815 4.035937 0.6035967 0.002659542 0.7972853 
-0.9285392 3.408813 -4.869598 -0.168914 -0.00245612 -0.9856277 
-2.689409 7.36735 4.15661 -0.5569217 5.98393e-05 0.830565 
-3.83642 6.137695 3.133532 -0.7558361 0.002809046 0.6547548 
2.282423 6.540121 4.398573 0.4424618 -0.0004763359 0.8967872 
1.875898 3.989156 -4.58292 0.4020388 -0.002306673 -0.9156197 
-0.4870353 9.501546 -4.925348 -0.1042948 0.003262528 -0.994541 
-4.874697 9.372559 0.844373 -0.9853873 -0.0002031177 0.1703287 
-4.9506 2.63265 0.04352009 -0.9996828 -5.98393e-05 0.02518556 
-0.1060472 1.705729 4.947255 -0.0128443 -0.0004454757 0.9999174 
1.015926 4.28243 -4.846872 0.1911705 0.00159503 -0.9815555 
-1.799085 6.363373 -4.619102 -0.3437148 5.604549e-08 -0.9390741 
-4.351325 9.514974 -2.357553 -0.8813351 0.002585106 -0.4724846 
3.920777 6.16272 -3.028227 0.802713 -0.001494657 -0.5963637 
-4.845003 10 1.003348 -0.9787034 0.0004031878 0.2052792 
1.043915 5.945129 4.841873 0.1938622 -0.001634939 0.9810274 
1.121548 6.591187 -4.821245 0.2262637 0.001755388 -0.9740645 
4.618972 7.36735 -1.781973 0.9387529 5.98393e-05 -0.3445908 
3.525623 2.960917 -3.484548 0.7079255 -0.002435239 -0.7062829 
4.625942 6.50706 -1.762722 0.9363586 -0.0003211451 -0.3510448 
-0.7755212 7.512258 4.890781 -0.1279854 0.003236746 0.9917708 
4.373391 7.978922 -2.327096 0.8831975 0.003153452 -0.4689906 
-0.4288146 1.890259 4.934198 -0.0823845 -0.002211969 0.9965982 
-3.861434 10 -3.093587 -0.7811691 0.003451844 -0.62431 
1.532262 3.408813 -4.714589 0.3268093 -0.00245612 -0.9450871 
-2.943228 8.391113 -3.984047 -0.5996588 0.003206477 -0.8002494 
-4.860456 6.851603 0.9402668 -0.9799422 0.00272128 0.1992634 
-0.01609154 5.340169 -4.954615 -0.03266955 0.00238947 -0.9994634 
-0.6971582 0 -4.898461 -0.1364682 0.0006732809 -0.9906442 
-3.252617 5.482534 3.743488 -0.6546765 2.44119e-08 0.7559091 
-0.3102761 2.50651 -4.941827 -0.08049281 -0.0002593113 -0.9967552 
-3.368239 6.137695 -3.632094 -0.7009221 0.002809046 -0.7132322 
-4.322104 9.514974 2.410705 -0.8711749 0.002585106 0.490966 
-2.451304 8.047383 4.304996 -0.4935375 0.002766267 0.8697202 
-3.312399 8.294271 3.683241 -0.6615527 0.003189304 0.7498919 
-3.920887 8.756129 -3.024611 -0.7992613 0.00321367 -0.600975 
3.567508 7.392782 3.439822 0.7192277 0.00288986 0.6947684 
3.529022 9.061279 -3.468266 0.7033652 0.002099014 -0.7108256 
4.625553 4.517466 -1.76649 0.9307933 0.001342162 -0.3655435 
3.936581 4.054871 3.006132 0.8051177 0.001634939 0.5931129 
-4.258774 0 2.518635 -0.861743 -0.001053068 0.5073439 
