ply
format ascii 1.0
comment Generated by the CGAL library
element vertex 432
property double x
property double y
property double z
property double nx
property double ny
property double nz
end_header
-0.273563 -0.0080685199999999992 -0.107081 0.98510399999999998 0.17191899999999999 -0.0037593499999999998 
-0.19456200000000001 -0.023998100000000001 -0.078856800000000005 0.84331100000000003 -0.537107 0.018496800000000001 
0.22774 0.038196500000000001 -0.160441 -0.066521399999999994 0.99747600000000003 -0.024822199999999999 
-0.198606 0.0292474 -0.196849 0.749421 0.66208699999999998 -0.0029171100000000001 
-0.21179500000000001 0.039065299999999997 -0.221828 0.43311300000000003 0.90132900000000005 -0.0043403499999999998 
-0.192742 0.021200900000000002 -0.14507600000000001 0.86123400000000006 0.50801600000000002 0.014006599999999999 
-0.18721299999999999 0.00038641899999999999 -0.288464 0.99995299999999998 -0.0094097199999999999 -0.0023336099999999999 
-0.25231399999999998 -0.037866299999999999 -0.160966 0.52549000000000001 0.85074000000000005 -0.0100844 
-0.19095899999999999 0.017378000000000001 -0.15731999999999999 0.91014799999999996 0.413941 0.0168185 
-0.262104 0.030076100000000001 -0.090114899999999998 0.71885299999999996 -0.69516199999999995 0 
-0.22761700000000001 0.043313999999999998 -0.13700999999999999 0.080643199999999998 0.99663900000000005 0.014364399999999999 
0.192352 -0.00050818300000000005 -0.145229 0.99961199999999995 0.0035677899999999999 -0.027623200000000001 
0.26455400000000001 0.018210400000000002 -0.243176 0.87549999999999994 0.48319200000000001 0.0049514600000000004 
0.21190200000000001 0.033478599999999997 -0.051107800000000002 -0.45631500000000003 0.88965099999999997 0.017256799999999999 
-0.25877600000000001 0.033400100000000002 -0.185668 -0.65607400000000005 0.754355 0.022692299999999999 
-0.188111 -0.0085722400000000001 -0.228411 0.95933900000000005 -0.28219499999999997 0.0057924500000000002 
-0.18978999999999999 0.0148399 -0.096271899999999994 0.95637899999999998 0.29210000000000003 -0.0041749700000000001 
-0.249059 -0.0393844 -0.19962199999999999 0.45182600000000001 0.89102800000000004 -0.043837899999999999 
0.26842500000000002 -0.0075037200000000002 -0.20347199999999999 0.98516400000000004 -0.17061299999999999 0.018505000000000001 
-0.216724 0.041192100000000002 -0.092321700000000007 0.34160000000000001 0.93981499999999996 -0.0075105399999999996 
-0.19175500000000001 0.019083099999999999 -0.070363099999999998 0.91084299999999996 0.41266700000000001 0.0083981999999999998 
0.25046800000000002 -0.032980700000000002 -0.116076 -0.51318600000000003 0.85517699999999996 0.072893600000000003 
-0.18781900000000001 -0.0073045200000000001 -0.046667300000000002 0.97520399999999996 -0.219586 0.027557499999999999 
-0.19935600000000001 -0.029997699999999999 -0.149477 0.73116800000000004 -0.68213299999999999 0.0093612699999999997 
-0.20049600000000001 0.031137700000000001 -0.22209999999999999 0.67185799999999996 0.74048800000000004 -0.016849699999999999 
-0.19167300000000001 -0.0189076 -0.077681 0.90265099999999998 -0.43032999999999999 -0.0061119199999999999 
0.257498 -0.027457100000000002 -0.13003100000000001 0.73833899999999997 -0.67438399999999998 -0.0078823000000000001 
-0.18731300000000001 0.00152695 -0.25866499999999998 0.99946599999999997 0.027294300000000001 0.017984799999999999 
-0.19051199999999999 0.016419199999999998 -0.092400200000000002 0.93890499999999999 0.34404400000000002 0.0095154200000000001 
-0.21542600000000001 -0.040758299999999997 -0.26707599999999998 -0.34920099999999998 0.93700700000000003 -0.0087400199999999994 
-0.26387100000000002 0.028309399999999998 -0.26011800000000002 0.76177399999999995 -0.64766900000000005 0.014978200000000001 
0.19690099999999999 0.0180296 -0.30899700000000002 0.85632600000000003 -0.51623799999999997 -0.0142845 
-0.23747599999999999 -0.043003 -0.142596 0.209706 0.97773399999999999 -0.0077660100000000003 
-0.2215 0.042472000000000003 -0.24233099999999999 0.224521 0.97407900000000003 -0.027589300000000001 
0.19307099999999999 -0.0073464400000000001 -0.13664899999999999 0.97319500000000003 0.22786400000000001 -0.031129199999999999 
-0.23103599999999999 0.043566399999999998 -0.120333 0.0067600200000000003 0.99997599999999998 0.00115204 
0.223803 -0.037799899999999997 -0.23879300000000001 0.22419 0.97448699999999999 -0.0106476 
-0.249116 0.039357900000000001 -0.28992299999999999 -0.42413200000000001 0.90525800000000001 0.024893599999999998 
0.25938600000000001 -0.025568899999999999 -0.145619 0.755413 -0.65524899999999997 0 
0.25090299999999999 0.032676700000000003 -0.089621099999999995 0.53957500000000003 0.84165699999999999 -0.0217305 
-0.200101 0.030741899999999999 -0.13670099999999999 0.71403799999999995 0.69996000000000003 0.014353899999999999 
0.25757099999999999 -0.027383899999999999 -0.019826300000000002 0.72120099999999998 -0.69272100000000003 0.0025963100000000001 
0.19264000000000001 -0.0037932500000000002 -0.18179300000000001 0.99642200000000003 0.084512799999999999 0.00121645 
-0.193719 0.022793799999999999 -0.300062 0.86140300000000003 0.50790999999999997 0.0036451299999999999 
0.26900200000000002 0.0026182100000000002 -0.184535 0.99946400000000002 0.0318067 -0.0076978400000000001 
-0.19603300000000001 -0.026098799999999998 -0.12879299999999999 0.77828399999999998 -0.62780000000000002 0.011919900000000001 
0.222686 -0.037500800000000001 -0.071258299999999997 0.247834 0.96870599999999996 -0.013650900000000001 
-0.214089 0.040134999999999997 -0.304537 0.37370700000000001 0.92752900000000005 0.0058435900000000001 
-0.19944799999999999 0.030089399999999999 -0.104767 0.72633499999999995 0.68733 -0.0038512799999999999 
0.193222 -0.0079109000000000002 -0.21820700000000001 0.986954 0.16051599999999999 0.012526900000000001 
0.25988600000000001 -0.025068300000000002 -0.120953 0.727549 -0.68605000000000005 0.0028761099999999999 
-0.270175 0.018243499999999999 -0.213091 0.90621499999999999 -0.42250599999999999 0.016220700000000001 
0.193548 0.0091271100000000008 -0.16757 0.958928 -0.28365000000000001 0 
-0.269675 0.019316300000000002 -0.16692299999999999 0.90125699999999997 -0.43318800000000002 -0.0091810099999999999 
-0.21989900000000001 -0.042043200000000003 -0.133326 -0.227441 0.97378399999999998 0.0038515300000000001 
0.25360500000000002 0.0307844 -0.17063600000000001 0.56272999999999995 0.82586400000000004 0.035825599999999999 
0.198273 -0.020390700000000001 -0.16086300000000001 0.868201 0.495502 -0.026537100000000001 
-0.26855200000000001 -0.021724799999999999 -0.13162299999999999 0.89674699999999996 0.44253300000000001 -0.0032210400000000001 
0.205762 -0.0291778 -0.18728 0.63555799999999996 0.77196200000000004 0.0118619 
-0.188171 0.0087960599999999996 -0.24918299999999999 0.98729199999999995 0.15884699999999999 0.0047453 
0.19405500000000001 0.0110207 -0.20615600000000001 0.95794100000000004 -0.28670299999999999 0.012297000000000001 
0.26885300000000001 -0.0043197499999999998 -0.030685 0.99210500000000001 -0.12528800000000001 0.0055962499999999997 
-0.21898000000000001 -0.041796899999999998 -0.054988599999999999 -0.25720100000000001 0.96625300000000003 -0.0142326 
-0.18809000000000001 0.0084951000000000002 -0.28847499999999998 0.97742399999999996 0.21113899999999999 -0.0079563600000000009 
0.22278800000000001 0.037527999999999999 -0.051722600000000001 -0.237424 0.97136900000000004 -0.0084626100000000006 
0.20141200000000001 0.024828599999999999 -0.084842500000000001 0.75520500000000002 -0.65537800000000002 -0.01206 
0.192688 0.0043511499999999998 -0.325465 0.982765 0.15241299999999999 -0.104614 
0.19961400000000001 0.0223053 -0.050854999999999997 0.80847400000000003 -0.58853100000000003 0 
0.26896599999999998 -0.00303053 -0.080768699999999999 0.99273199999999995 -0.106404 0.056233100000000001 
-0.20483100000000001 0.034849100000000001 -0.054004900000000002 0.56184999999999996 0.82720899999999997 -0.0070089899999999997 
0.269038 0.0022055 -0.098134600000000002 0.99992999999999999 0.0034597299999999998 0.0112794 
0.22980200000000001 0.038376899999999999 -0.25851099999999999 -0.019442399999999999 0.99958000000000002 0.021493999999999999 
-0.21470700000000001 0.040422800000000002 -0.15565300000000001 0.32486300000000001 0.94573700000000005 -0.0067296400000000003 
-0.21397099999999999 -0.040079900000000002 -0.096661700000000003 -0.441882 0.89706799999999998 0.0031848800000000002 
0.22667799999999999 -0.038103499999999998 -0.24265400000000001 0.110069 0.99391600000000002 -0.00405901 
-0.24557499999999999 0.040988499999999997 -0.16936399999999999 -0.38692199999999999 0.92210000000000003 0.0047735399999999997 
-0.25520100000000001 -0.035903299999999999 -0.181533 0.58363299999999996 0.81200399999999995 0.0046794200000000001 
-0.247671 0.040031600000000001 -0.184947 -0.38387300000000002 0.92338600000000004 0 
0.22567899999999999 -0.038016099999999997 -0.053772300000000002 0.142791 0.98974499999999999 0.0039096299999999999 
-0.271536 -0.0153248 -0.112925 0.94372500000000004 0.33071400000000001 0.0034378999999999998 
-0.26881699999999997 -0.021155400000000001 -0.113134 0.85998200000000002 0.51031000000000004 -0.0037191500000000001 
-0.191021 -0.017510000000000001 -0.15174799999999999 0.91006200000000004 -0.414433 0.0057462800000000003 
0.21945700000000001 -0.0366357 -0.104591 0.249971 0.96815700000000005 0.0136674 
0.25184000000000001 -0.032020600000000003 -0.113496 -0.56872500000000004 0.82219600000000004 0.023349700000000001 
0.26873900000000001 -0.0056221099999999996 -0.14852399999999999 0.990985 -0.13225700000000001 0.021395600000000001 
0.26865299999999998 -0.0065973899999999999 -0.0913601 0.98731999999999998 -0.158553 -0.0077815499999999999 
0.19886400000000001 -0.021234699999999999 -0.055356299999999997 0.82491599999999998 0.56525499999999995 0.00073734199999999999 
0.19725400000000001 0.0187879 -0.274922 0.880166 -0.47413300000000003 -0.0225075 
0.22036 -0.036877600000000003 -0.052310700000000002 0.26748 0.96356299999999995 -0.000874689 
0.264349 -0.018649800000000001 -0.0531236 0.88871699999999998 -0.45813999999999999 -0.01703 
-0.26718700000000001 -0.0236975 -0.313386 0.845078 0.53464400000000001 0 
0.20263700000000001 0.026053900000000001 -0.22250200000000001 0.730796 -0.68232199999999998 -0.019344199999999999 
-0.198431 0.029072600000000001 -0.17566699999999999 0.76810299999999998 0.64029199999999997 0.0066645000000000003 
-0.187636 -0.0052201499999999998 -0.18926499999999999 0.99101399999999995 -0.13312599999999999 0.0129724 
0.23797599999999999 0.0377358 -0.11495900000000001 0.18956300000000001 0.98183600000000004 0.0079671399999999993 
-0.27354800000000001 0.0081247799999999998 -0.25445800000000002 0.96618999999999999 -0.25774000000000002 -0.0068204900000000002 
0.256631 -0.0283244 -0.25256099999999998 -0.66793599999999997 0.74417599999999995 -0.0080051400000000009 
0.26103599999999999 -0.023575200000000001 -0.052204199999999999 0.77883599999999997 -0.627166 -0.0087448500000000002 
0.24538299999999999 0.0354615 -0.238728 0.36509599999999998 0.93096500000000004 0.0029586500000000002 
0.21180299999999999 0.033432400000000001 -0.230994 -0.49213400000000002 0.87051599999999996 0.0024640399999999998 
-0.24751699999999999 0.040103399999999997 -0.277314 -0.35176800000000003 0.936087 0 
0.23144899999999999 0.038401999999999999 -0.15054000000000001 0.0135085 0.99988100000000002 0.00738735 
-0.20211899999999999 -0.032760200000000003 -0.1118 -0.68554700000000002 0.727599 -0.024992400000000001 
0.23302800000000001 -0.038263800000000001 -0.275723 -0.096711099999999994 0.995282 -0.0077595199999999998 
0.26672099999999999 -0.013563 -0.16126799999999999 0.93382299999999996 -0.35766399999999998 0.0070842800000000001 
-0.22528599999999999 -0.043110099999999998 -0.13688600000000001 -0.109918 0.99245899999999998 0.054256499999999999 
-0.22813800000000001 0.043359700000000001 -0.27806999999999998 0.065045699999999998 0.99788200000000005 -0.00104189 
0.211003 -0.0329343 -0.28415200000000002 0.52198299999999997 0.85264799999999996 0.0229204 
-0.26704099999999997 0.023905699999999998 -0.186167 0.87542200000000003 -0.48333700000000002 -0.0046134000000000001 
0.24563199999999999 -0.035345599999999998 -0.27079500000000001 -0.39401900000000001 0.91910000000000003 0.0020232900000000001 
0.20764199999999999 0.030580199999999998 -0.17018900000000001 -0.60401400000000005 0.79697399999999996 0 
0.25752700000000001 0.027427699999999999 -0.21615000000000001 0.70512200000000003 0.70863100000000001 -0.0254004 
-0.25888699999999998 0.033292599999999999 -0.190665 -0.66824499999999998 0.74394199999999999 0 
0.215889 -0.035337500000000001 -0.27588400000000002 0.39634000000000003 0.91803100000000004 -0.0115595 
0.26891199999999998 -0.0036368899999999998 -0.085289199999999996 0.99340300000000004 -0.114661 -0.00169633 
0.19232199999999999 0.000157973 -0.0989091 0.99976600000000004 -0.021292100000000001 0.0038692800000000001 
-0.24523800000000001 -0.041078799999999999 -0.19375999999999999 0.26672400000000002 0.96360599999999996 0.0179115 
-0.195741 0.025681499999999999 -0.193305 0.80014700000000005 0.59979700000000002 0.00289865 
-0.19082299999999999 -0.0170844 -0.31776599999999999 0.92500300000000002 -0.37995899999999999 0 
-0.220577 0.0422248 -0.27300099999999999 0.249172 0.96843500000000005 -0.00689969 
-0.188966 -0.0117635 -0.099024399999999999 0.95113999999999999 -0.30814999999999998 0.019418899999999999 
-0.18870500000000001 -0.0107914 -0.286269 0.96696899999999997 -0.25465199999999999 -0.011073100000000001 
-0.189974 0.015265000000000001 -0.063543000000000002 0.94291400000000003 0.332897 -0.0095815099999999997 
-0.19595099999999999 0.025981899999999999 -0.25281900000000002 0.774227 0.63263599999999998 -0.018559800000000001 
-0.19705400000000001 -0.027557000000000002 -0.096653900000000001 0.78702300000000003 -0.61684099999999997 -0.010125 
-0.24722 -0.040241899999999997 -0.163379 0.39906000000000003 0.91692399999999996 0.0013493299999999999 
-0.25117299999999998 0.038398399999999999 -0.25687700000000002 -0.49071399999999998 0.87131599999999998 0.00283388 
-0.2276 0.043312499999999997 -0.222715 0.129333 0.99147399999999997 0.015910199999999999 
-0.20360300000000001 -0.033989199999999997 -0.0791076 -0.63795199999999996 0.77000199999999996 0.010689199999999999 
-0.20120399999999999 0.031845600000000002 -0.20116400000000001 0.69791800000000004 0.71612299999999995 -0.0089040100000000004 
-0.25768600000000003 0.034163100000000002 -0.21576100000000001 -0.61331199999999997 0.78968700000000003 -0.015547 
-0.27297700000000003 -0.0102547 -0.31242700000000001 0.96523000000000003 0.26139800000000002 -0.00140942 
-0.19006000000000001 0.01545 -0.16198699999999999 0.93354599999999999 0.35820999999999997 -0.013342100000000001 
-0.20435900000000001 0.034518 -0.150141 0.61927100000000002 0.78509499999999999 0.011376900000000001 
0.23799799999999999 -0.03773 -0.30952600000000002 -0.202651 0.97925099999999998 0 
0.25579800000000003 -0.029156899999999999 -0.13597600000000001 -0.69475500000000001 0.71924600000000005 0 
0.26914199999999999 -0.0010192999999999999 -0.12515599999999999 0.99949399999999999 -0.0297994 0.0111019 
0.192638 0.0037684900000000002 -0.0373292 0.99344100000000002 -0.110039 -0.031077299999999999 
0.20852799999999999 -0.031200800000000001 -0.31941900000000001 0.63380999999999998 0.77333499999999999 0.015401700000000001 
0.26821699999999998 -0.0082792000000000004 -0.11447599999999999 0.98274499999999998 -0.182999 0.0269159 
-0.22792299999999999 0.043340799999999999 -0.13202 0.051557199999999997 0.99847600000000003 -0.01967 
-0.20990300000000001 -0.038183099999999998 -0.203796 -0.49523200000000001 0.86870000000000003 -0.0102687 
-0.216415 -0.0411095 -0.184507 -0.31234299999999998 0.94990300000000005 0.011214399999999999 
-0.20574799999999999 -0.035490899999999999 -0.25627499999999998 -0.53791 0.84299999999999997 0.0019897000000000001 
0.193491 0.0089132599999999992 -0.113554 0.96692699999999998 -0.25414199999999998 -0.0215674 
0.217029 -0.035868700000000003 -0.098252999999999993 0.363873 0.93137800000000004 -0.011427 
-0.26734799999999997 0.023467600000000002 -0.100422 0.85262400000000005 -0.52252399999999999 0 
0.22487199999999999 0.037945600000000003 -0.21773200000000001 -0.15535199999999999 0.98750199999999999 0.026565499999999999 
-0.213223 0.039731000000000002 -0.25316300000000003 0.41685899999999998 0.90895599999999999 -0.0052213399999999997 
-0.20922299999999999 -0.037866200000000003 -0.25096299999999999 -0.50013099999999999 0.86594000000000004 -0.0041024800000000004 
0.20796300000000001 -0.030805200000000001 -0.264123 0.55631200000000003 0.83096400000000004 -0.0039310500000000002 
-0.20721500000000001 -0.036518200000000001 -0.23957300000000001 -0.51148899999999997 0.85928800000000005 -0.0015821699999999999 
0.192357 -0.00055862000000000001 -0.20646500000000001 0.99988699999999997 -0.015011 -0.00113575 
0.25381399999999998 -0.030638200000000001 -0.12878100000000001 -0.59911000000000003 0.80066199999999998 -0.0027388 
0.26511000000000001 -0.017016300000000002 -0.22494600000000001 0.89951300000000001 -0.43686999999999998 -0.0046218300000000004 
0.22203100000000001 0.037325299999999999 -0.29805100000000001 -0.21507699999999999 0.97609800000000002 0.031235200000000001 
-0.27399000000000001 -0.0042196400000000002 -0.31172 0.99735600000000002 0.072668899999999995 -0.00074010000000000005 
-0.259044 -0.033135299999999999 -0.20269699999999999 0.60699899999999996 0.79406600000000005 -0.031810400000000003 
0.197127 -0.018514300000000001 -0.091487200000000005 0.84909599999999996 0.52823200000000003 -0.00280941 
-0.26084400000000002 0.031335700000000001 -0.283891 -0.67560100000000001 0.73724100000000004 -0.0062698500000000004 
-0.26011600000000001 -0.032063800000000003 -0.114671 0.69002200000000002 0.72353500000000004 0.0191202 
0.19261800000000001 -0.0035401299999999998 -0.071912799999999999 0.99504599999999999 0.096024100000000001 -0.025756100000000001 
0.24246999999999999 -0.036531599999999997 -0.27556199999999997 -0.28507500000000002 0.95813499999999996 0.026652200000000001 
0.212871 -0.033930000000000002 -0.31553900000000001 0.47964400000000001 0.87746299999999999 0 
-0.19011500000000001 -0.015566699999999999 -0.158114 0.938801 -0.34443699999999999 -0.0040239899999999999 
-0.24953800000000001 -0.0391612 -0.082103099999999998 0.40489799999999998 0.91435100000000002 0.0044396000000000001 
-0.192103 -0.019830299999999999 -0.118343 0.90904700000000005 -0.41624800000000001 -0.019271799999999999 
0.26784200000000002 -0.0096787000000000002 -0.20418700000000001 0.95422700000000005 -0.29873 -0.0145104 
-0.26110499999999998 0.031074600000000001 -0.14668500000000001 0.71736900000000003 -0.69654300000000002 0.014460600000000001 
0.19725799999999999 0.018794600000000002 -0.29672999999999999 0.88753599999999999 -0.46057399999999998 -0.012343700000000001 
0.2581 0.026855 -0.27330700000000002 0.69893300000000003 0.71514200000000006 -0.0080988599999999994 
-0.18828800000000001 0.0092356299999999999 -0.186806 0.97009100000000004 0.24259500000000001 0.0083765999999999997 
0.264428 0.018480699999999999 -0.188887 0.89267099999999999 0.45070700000000002 0.00121339 
-0.233407 -0.043359000000000002 -0.063571299999999997 0.083613800000000002 0.99646199999999996 -0.0085190600000000002 
0.19265599999999999 -0.0039780800000000002 -0.17810200000000001 0.99315900000000001 0.11604 -0.013002700000000001 
0.25085200000000002 -0.032711900000000002 -0.24665699999999999 -0.55033699999999997 0.83484599999999998 0.0127104 
-0.27379999999999999 -0.0063952100000000001 -0.24838299999999999 0.99405299999999996 0.10839699999999999 -0.0104175 
0.220941 0.037033099999999999 -0.22536500000000001 -0.252967 0.96746600000000005 -0.0042359399999999997 
-0.220078 0.042090799999999998 -0.13161500000000001 0.22515199999999999 0.97426699999999999 -0.0104995 
-0.26906000000000002 -0.0206351 -0.27943699999999999 0.88595199999999996 0.46371099999999998 -0.0078358100000000003 
-0.25274400000000002 -0.037623700000000003 -0.140379 0.50031199999999998 0.86582400000000004 0.0060991200000000004 
-0.27046599999999998 0.017619099999999999 -0.318106 0.91811900000000002 -0.395459 0.025882200000000001 
0.19272900000000001 0.0048157299999999998 -0.16223399999999999 0.99164600000000003 -0.12796099999999999 0.016263699999999999 
0.264098 -0.019188199999999999 -0.170707 0.86581300000000005 -0.50008300000000006 -0.016876499999999999 
0.20094400000000001 0.024205299999999999 -0.27953800000000001 0.78216300000000005 -0.62268199999999996 -0.0220961 
-0.21085400000000001 -0.038626300000000002 -0.24818799999999999 -0.48713800000000002 0.87332200000000004 -0.0021083199999999999 
-0.205707 -0.035462500000000001 -0.31205899999999998 -0.56727499999999997 0.823492 -0.0077951699999999997 
-0.197102 -0.027624800000000001 -0.086969500000000005 0.78676900000000005 -0.61712699999999998 0.0122145 
0.244141 0.036040799999999998 -0.070096199999999997 0.41281899999999999 0.91080099999999997 -0.0046391899999999996 
0.23303699999999999 0.038263100000000001 -0.21690499999999999 0.0623574 0.99783100000000002 -0.021098599999999999 
0.22109000000000001 0.037073099999999998 -0.32181900000000002 -0.26645000000000002 0.96384899999999996 0 
0.26760499999999998 -0.010566000000000001 -0.20024900000000001 0.96674800000000005 -0.25573099999999999 0 
0.20980299999999999 -0.032093299999999998 -0.216947 0.54794399999999999 0.83624100000000001 0.021404900000000001 
0.26367600000000002 -0.019804200000000001 -0.31289800000000001 0.85393399999999997 -0.520262 -0.0111495 
0.194356 0.012142200000000001 -0.17000199999999999 0.94097500000000001 -0.33833400000000002 -0.0098059099999999993 
0.22135099999999999 -0.037143000000000002 -0.30844500000000002 0.21541199999999999 0.97589899999999996 0.034926800000000001 
0.26191799999999998 -0.022314899999999999 -0.23042000000000001 0.81703899999999996 -0.57643999999999995 -0.0127936 
-0.22190699999999999 0.042581000000000001 -0.109208 0.213198 0.97685200000000005 -0.017530199999999999 
-0.190834 -0.017107899999999999 -0.10741299999999999 0.91423900000000002 -0.40517599999999998 0 
0.19340599999999999 0.0085970300000000003 -0.229378 0.98206000000000004 -0.18450900000000001 -0.038906000000000003 
-0.18906600000000001 -0.0121402 -0.208338 0.96188300000000004 -0.27345900000000001 0.00077682499999999998 
0.22220899999999999 0.037373000000000003 -0.32632899999999998 -0.30991200000000002 0.91415599999999997 0.26129000000000002 
0.19734699999999999 -0.018986900000000001 -0.053881199999999997 0.87259500000000001 0.48828899999999997 0.012360599999999999 
0.252112 0.031829900000000001 -0.22988500000000001 0.57000600000000001 0.82149000000000005 -0.015698799999999999 
0.19533200000000001 -0.014666800000000001 -0.091309199999999993 0.91642999999999997 0.400003 0.0124186 
-0.20489399999999999 -0.034892699999999999 -0.069009100000000004 -0.61328000000000005 0.78807099999999997 -0.0532218 
-0.260098 0.032081899999999997 -0.070250300000000002 -0.68568099999999998 0.72786799999999996 0.0070592700000000003 
0.19275300000000001 0.0050876699999999999 -0.13389599999999999 0.98666399999999999 -0.162054 -0.0152391 
0.20782900000000001 0.0307113 -0.109874 -0.573569 0.81894699999999998 -0.018561299999999999 
0.24897900000000001 0.033784700000000001 -0.308471 0.425562 0.90481999999999996 -0.0140743 
0.218254 -0.036313400000000003 -0.077129299999999998 0.308919 0.95108400000000004 -0.00294152 
-0.20356399999999999 0.033961499999999999 -0.318546 0.64083999999999997 0.76746800000000004 0.017796599999999999 
-0.18723400000000001 0.00062956799999999995 -0.149479 0.99956999999999996 0.028535600000000001 -0.0067610700000000001 
0.26447700000000002 -0.0183748 -0.085832000000000006 0.88338000000000005 -0.46782000000000001 0.028019700000000002 
-0.26840599999999998 -0.0219559 -0.061110499999999998 0.86076299999999994 0.50897000000000003 0.0059880300000000001 
0.261243 0.023279000000000001 -0.149174 0.79972500000000002 0.600267 0.0109798 
0.22261800000000001 0.037482399999999999 -0.107181 -0.216892 0.97601400000000005 -0.018803799999999999 
-0.20197100000000001 0.032612200000000001 -0.20122000000000001 0.69791800000000004 0.71612299999999995 -0.0089040000000000005 
-0.189251 -0.0128308 -0.23907300000000001 0.94190099999999999 -0.33588699999999999 0.0013597699999999999 
0.19923399999999999 -0.0217638 -0.014644300000000001 0.816388 0.57711599999999996 -0.0211317 
0.22925200000000001 -0.038328800000000003 -0.29002600000000001 0.067706500000000003 0.99770300000000001 -0.0022983999999999999 
-0.19070400000000001 0.016830999999999999 -0.26527099999999998 0.92414300000000005 0.38142700000000002 0.021747300000000001 
0.20564499999999999 0.029060699999999998 -0.22352900000000001 -0.674701 0.73746299999999998 -0.030435199999999999 
0.26841700000000002 0.00753413 -0.0125652 0.98116199999999998 0.19306999999999999 -0.0067558799999999997 
-0.263544 0.0286357 -0.29522599999999999 0.786825 -0.61716700000000002 0.0033417899999999999 
0.19846900000000001 -0.020670299999999999 -0.204848 0.84960199999999997 0.52741499999999997 -0.0029683800000000001 
0.21305299999999999 -0.034014900000000001 -0.159193 0.42197099999999998 0.90610900000000005 -0.030110499999999998 
-0.22147900000000001 0.042466400000000001 -0.13918800000000001 0.212064 0.97723499999999996 0.0063247800000000003 
-0.20370099999999999 0.034057700000000003 -0.072177199999999997 0.57567699999999999 0.81755900000000004 0.0138662 
0.214196 -0.034547899999999999 -0.156275 0.410551 0.91173599999999999 -0.013615199999999999 
0.19869300000000001 -0.020989799999999999 -0.29066599999999998 0.85384400000000005 0.52046599999999998 -0.0081472899999999997 
-0.20987 0.038167800000000002 -0.16795599999999999 0.433782 0.90100499999999994 -0.0048489800000000001 
0.23465800000000001 0.038121299999999997 -0.30428899999999998 0.14069100000000001 0.98989400000000005 -0.017762500000000001 
0.24419199999999999 -0.036017300000000002 -0.16848199999999999 -0.30803700000000001 0.95134799999999997 -0.0070978500000000002 
0.218559 0.036394900000000001 -0.13881499999999999 -0.321573 0.94675299999999996 0.015801599999999999 
-0.25117200000000001 0.0383989 -0.141737 -0.45891399999999999 0.88834900000000006 -0.015325200000000001 
-0.23650099999999999 0.043088300000000003 -0.10317 -0.17440800000000001 0.98462899999999998 -0.0093969299999999995 
0.20450599999999999 0.027922300000000001 -0.25721300000000002 -0.69161799999999996 0.72225700000000004 0.0031041699999999998 
-0.20296800000000001 -0.033544499999999998 -0.29434300000000002 -0.64397499999999996 0.765046 0 
0.22724900000000001 -0.0381535 -0.072184999999999999 0.092434000000000002 0.99571500000000002 0.00292684 
0.25989200000000001 0.0250627 -0.14596500000000001 0.75320900000000002 0.65771599999999997 0.0093085300000000006 
-0.21614700000000001 -0.041037700000000003 -0.26382800000000001 -0.35979299999999997 0.93285600000000002 -0.018144400000000001 
-0.242313 -0.041862700000000003 -0.115135 0.23786099999999999 0.97129399999999999 0.0032498399999999999 
-0.221359 0.042434100000000002 -0.20608899999999999 0.20754900000000001 0.97798499999999999 -0.0216388 
-0.269986 -0.018649099999999998 -0.073464199999999993 0.90426399999999996 0.42635499999999998 -0.022981100000000001 
0.26874399999999998 0.0055638199999999997 -0.160909 0.98814800000000003 0.15220800000000001 -0.0198931 
-0.25883200000000001 -0.033347799999999997 -0.219281 0.64864699999999997 0.76108900000000002 0 
-0.260158 0.032021300000000003 -0.069357799999999997 -0.68223299999999998 0.73110699999999995 -0.00639537 
0.202848 0.026263999999999999 -0.14460200000000001 0.72316100000000005 -0.69062199999999996 -0.0088330000000000006 
-0.25932500000000003 0.032854800000000003 -0.31730900000000001 -0.64156100000000005 0.76707199999999998 0 
-0.247859 0.039943699999999999 -0.22698099999999999 -0.37322699999999998 0.92773600000000001 0.00293071 
-0.25210300000000002 0.037964699999999997 -0.199764 -0.48930400000000002 0.87139800000000001 0.035319499999999997 
-0.23754 -0.042997399999999998 -0.32245699999999999 0.18989600000000001 0.98175000000000001 0.0103392 
-0.26597700000000002 0.025425400000000001 -0.072008900000000001 0.80859899999999996 -0.58828199999999997 0.0095980100000000006 
-0.23741899999999999 -0.043007999999999998 -0.19480500000000001 0.148704 0.98876900000000001 0.0149611 
-0.27002100000000001 -0.018574 -0.27399000000000001 0.90631799999999996 0.42258600000000002 0.0029029300000000002 
0.19814100000000001 -0.020201299999999998 -0.025344700000000001 0.83953299999999997 0.54328799999999999 0.0047668399999999996 
-0.27375899999999997 -0.0068625200000000004 -0.116676 0.98883200000000004 0.14896100000000001 -0.0047429300000000002 
0.26874799999999999 -0.0055124099999999997 -0.17693 0.98285 -0.18229200000000001 -0.027844500000000001 
-0.18865999999999999 0.0106245 -0.089968000000000006 0.96832300000000004 0.249529 0.0092156400000000006 
-0.22239600000000001 0.042712 -0.15634400000000001 0.189997 0.98170800000000003 -0.0122405 
-0.196294 0.026471700000000001 -0.19073499999999999 0.78991 0.61322299999999996 0 
0.219165 0.036557300000000001 -0.28505999999999998 -0.28559600000000002 0.958256 -0.013451899999999999 
-0.27309800000000001 -0.0098052499999999997 -0.24355599999999999 0.97366399999999997 0.227377 -0.016659 
-0.20957500000000001 0.038030099999999997 -0.089095199999999999 0.49979800000000002 0.86609199999999997 0.0092704699999999994 
-0.27389999999999998 -0.0052526500000000002 -0.063401700000000005 0.99307199999999995 0.11749900000000001 -0.0013421100000000001 
-0.26853300000000002 -0.021764800000000001 -0.26672000000000001 0.88033700000000004 0.47375899999999999 0.023639199999999999 
-0.192687 0.021082799999999999 -0.151287 0.86880199999999996 0.49502699999999999 -0.011429399999999999 
-0.19190599999999999 0.019407400000000002 -0.223437 0.89574699999999996 0.44456299999999999 0 
-0.197155 -0.027700800000000001 -0.27404699999999999 0.76902700000000002 -0.63919800000000004 -0.0049659300000000003 
0.205014 0.028429900000000001 -0.30174499999999999 -0.691527 0.72232799999999997 0.0057151600000000004 
0.26656999999999997 0.013886600000000001 -0.29189100000000001 0.93073600000000001 0.365371 0.015304999999999999 
-0.18829000000000001 -0.0092427499999999992 -0.26973399999999997 0.97741400000000001 -0.209869 0.0248332 
-0.24379100000000001 0.041466500000000003 -0.21301300000000001 -0.30605599999999999 0.95198799999999995 0.0070225299999999999 
0.192693 -0.0044027500000000004 -0.205732 0.99005100000000001 0.13859299999999999 -0.0242951 
0.23352500000000001 0.038220400000000002 -0.31563000000000002 0.0553617 0.99780599999999997 -0.036301699999999999 
0.233764 0.038199499999999997 -0.119088 0.12625600000000001 0.99199800000000005 0 
-0.26820500000000003 0.0222434 -0.099662399999999998 0.86344699999999996 -0.50439000000000001 0.0070524200000000002 
-0.23761199999999999 -0.042991099999999997 -0.23564299999999999 0.124311 0.99223700000000004 -0.0035583799999999999 
0.261716 0.022603700000000001 -0.014357200000000001 0.80583700000000003 0.59187800000000002 0.017533300000000002 
-0.189304 -0.013025200000000001 -0.199383 0.95394900000000005 -0.29826000000000003 0.031962699999999997 
-0.25751499999999999 -0.034283000000000001 -0.230765 0.61910699999999996 0.78530699999999998 0 
0.25619500000000001 0.028759900000000001 -0.21651300000000001 0.66399300000000006 0.74706399999999995 -0.031774999999999998 
-0.27371899999999999 -0.0073162599999999998 -0.188219 0.99230399999999996 0.123655 0.0064841600000000001 
0.22784799999999999 0.038205900000000001 -0.26013799999999998 -0.075783699999999996 0.99700200000000005 -0.0155996 
0.24364 -0.036218100000000003 -0.076058500000000001 -0.37789 0.92584299999999997 0.0036194700000000001 
0.24330099999999999 -0.036309000000000001 -0.281808 -0.361844 0.93223599999999995 0.0021473299999999998 
-0.195718 -0.025648399999999998 -0.14802599999999999 0.80619399999999997 -0.59157800000000005 0.0093499700000000008 
0.19909399999999999 -0.021563499999999999 -0.192383 0.83827499999999999 0.54435699999999998 -0.031141100000000001 
0.24726000000000001 -0.034586600000000002 -0.25880300000000001 -0.47735300000000003 0.87870499999999996 -0.0034090000000000001 
0.220167 0.036825700000000003 -0.0204329 -0.26178800000000002 0.96511499999999995 0.0044842099999999998 
0.196691 0.017579299999999999 -0.20799100000000001 0.88782099999999997 -0.460088 -0.0096496499999999992 
0.194077 -0.0111033 -0.054122499999999997 0.947654 0.31845699999999999 -0.023161899999999999 
-0.212534 -0.039409800000000002 -0.17718800000000001 -0.40392 0.91479100000000002 0.0023532100000000001 
-0.25153999999999999 -0.038227299999999999 -0.15762000000000001 0.503328 0.86407699999999998 -0.0056467399999999999 
0.25719599999999998 0.027758999999999999 -0.25645800000000002 0.67447299999999999 0.73818099999999998 0.0132283 
0.26395400000000002 0.019407899999999999 -0.20712700000000001 0.85858900000000005 0.51256299999999999 -0.010236 
-0.18742700000000001 0.0028291200000000001 -0.073656700000000006 0.99845899999999999 0.053418800000000002 -0.0150315 
-0.21129000000000001 0.038829599999999999 -0.14296200000000001 0.439083 0.89843899999999999 -0.0035704299999999999 
0.19549900000000001 0.0150232 -0.257683 0.91956099999999996 -0.39223799999999998 0.0235917 
0.21279100000000001 0.033892899999999997 -0.047837200000000003 -0.46066200000000002 0.88745099999999999 0.0149033 
0.215168 -0.0350011 -0.26955099999999999 0.42773600000000001 0.90353399999999995 0.025858300000000001 
-0.25818400000000002 0.033814700000000003 -0.25083499999999997 -0.65662699999999996 0.75420900000000002 0.0030213499999999999 
-0.27427400000000002 0.00097627200000000003 -0.30608400000000002 0.99970000000000003 0.018973500000000001 0.0154571 
-0.245255 -0.0410745 -0.220831 0.30383900000000003 0.95271700000000004 -0.0035529699999999999 
0.267955 0.0092581499999999997 -0.18726799999999999 0.96457099999999996 0.26334299999999999 0.015899 
0.26831199999999999 0.0079270399999999998 -0.19072700000000001 0.977155 0.21249699999999999 0.0035354399999999999 
-0.24258299999999999 0.0417902 -0.22627900000000001 -0.33619500000000002 0.94164700000000001 0.016572199999999999 
0.263876 -0.019519499999999999 -0.29921799999999998 0.854047 -0.52012599999999998 -0.0085529899999999999 
0.25714199999999998 -0.027813299999999999 -0.259494 -0.65462900000000002 0.75514999999999999 0.034779499999999998 
-0.214499 0.040325899999999998 -0.18206700000000001 0.350406 0.93655100000000002 -0.00933989 
0.19933799999999999 -0.021912000000000001 -0.172481 0.83042499999999997 0.55432099999999995 0.055872199999999997 
-0.26553399999999999 0.026058000000000001 -0.24398300000000001 0.82886499999999996 -0.55942499999999995 -0.0051376599999999996 
0.26902300000000001 0.0023772899999999998 -0.23969599999999999 0.99994400000000006 -0.0071663100000000004 0.0077548599999999997 
0.197382 -0.019060400000000002 -0.047586200000000002 0.84813000000000005 0.52976000000000001 -0.0054900900000000004 
-0.24473700000000001 -0.041213100000000003 -0.27830700000000003 0.29832999999999998 0.954461 0.00186616 
0.20987600000000001 -0.032144800000000001 -0.059789700000000001 0.52774900000000002 0.84934100000000001 0.0100237 
0.194884 0.0137065 -0.21082200000000001 0.91410899999999995 -0.40539199999999997 0.0078516899999999997 
-0.27353 -0.0081915800000000004 -0.28628599999999998 0.969333 0.24568400000000001 -0.0057917400000000001 
0.23932500000000001 0.037374200000000003 -0.108904 0.198686 0.98005699999999996 0.0034938999999999999 
0.21079400000000001 -0.032787499999999997 -0.052015400000000003 0.53146700000000002 0.84707900000000003 0 
-0.22752600000000001 0.0433061 -0.20547299999999999 0.111356 0.99378 -0.00129093 
-0.22815199999999999 0.043360799999999998 -0.167245 0.095440700000000003 0.99518700000000004 -0.022243800000000001 
0.23963100000000001 -0.037292400000000003 -0.065266599999999994 -0.16689699999999999 0.98587199999999997 0.014176599999999999 
-0.18732799999999999 -0.00170382 -0.168401 0.99951900000000005 0.030788599999999999 0.00360275 
-0.26310499999999998 -0.029074900000000001 -0.064678899999999998 0.73593399999999998 0.67704799999999998 0.0026670399999999999 
-0.21702399999999999 0.041272499999999997 -0.20139899999999999 0.271679 0.96236999999999995 0.0059260700000000003 
0.233651 -0.038209300000000002 -0.15271899999999999 -0.026919100000000001 0.99955700000000003 0.012707100000000001 
0.25545499999999999 0.029489100000000001 -0.19061700000000001 0.66395700000000002 0.74774700000000005 -0.0058615500000000001 
0.26780399999999999 -0.0098227699999999998 -0.17174700000000001 0.956843 -0.290466 -0.0089967099999999998 
-0.27298899999999998 -0.010211599999999999 -0.17760000000000001 0.96160599999999996 0.27443499999999998 0 
-0.24620300000000001 -0.040716200000000001 -0.32524599999999998 0.31241000000000002 0.93164199999999997 -0.18559100000000001 
-0.274233 -0.0014351800000000001 -0.303952 0.99638499999999997 0.084891099999999997 0.0032263000000000001 
0.193159 0.0076768399999999999 -0.088744699999999996 0.98050199999999998 -0.19636600000000001 0.0074998499999999997 
-0.19647600000000001 -0.026731100000000001 -0.095991499999999993 0.78702300000000003 -0.61684099999999997 -0.010125 
-0.21956100000000001 -0.041952499999999997 -0.10777200000000001 -0.19084300000000001 0.98140700000000003 -0.020474200000000001 
0.25031399999999998 0.033088899999999997 -0.17366000000000001 0.498973 0.86655899999999997 0.0100629 
-0.27307599999999999 -0.0098846899999999998 -0.184917 0.98121000000000003 0.19172800000000001 -0.021613500000000001 
0.192667 -0.0041062 -0.239764 0.998556 0.053660899999999997 0.00266643 
-0.19400400000000001 0.0232021 -0.073695800000000006 0.86462099999999997 0.50240099999999999 -0.0048905399999999996 
0.205097 -0.0285131 -0.15504899999999999 0.67865399999999998 0.73420600000000003 0.019239699999999998 
0.26313399999999998 0.020579400000000001 -0.22055900000000001 0.83710300000000004 0.54679299999999997 -0.016592300000000001 
0.24002799999999999 0.037185799999999998 -0.28342899999999999 0.23812700000000001 0.97123400000000004 0 
-0.26438899999999999 0.0276928 -0.24718200000000001 0.78530800000000001 -0.61907599999999996 -0.0060676100000000002 
0.26133699999999999 0.0231448 -0.280165 0.77702000000000004 0.62945499999999999 0.0051433099999999999 
0.268648 0.0066594200000000001 -0.21392700000000001 0.988784 0.14866099999999999 -0.0143426 
-0.212369 -0.039332800000000001 -0.141897 -0.42038199999999998 0.90734300000000001 -0.0028285099999999998 
-0.26202599999999998 -0.030153599999999999 -0.24074899999999999 0.75887899999999997 0.65080000000000005 -0.023723000000000001 
0.19284999999999999 -0.0061989699999999998 -0.25770999999999999 0.99151100000000003 0.122533 0.0434965 
-0.19305800000000001 -0.0218502 -0.20291400000000001 0.86580000000000001 -0.50039100000000003 0 
0.269015 0.00246372 -0.057695700000000003 0.99904800000000005 0.041295199999999997 -0.0140731 
0.25591700000000001 -0.029038100000000001 -0.21227699999999999 -0.67649000000000004 0.73645099999999997 -0.0013854200000000001 
-0.18907399999999999 -0.0121683 -0.085240399999999994 0.95474999999999999 -0.29730099999999998 -0.0079759400000000008 
0.26890700000000001 0.0036980400000000001 -0.18074100000000001 0.99582899999999996 0.085477300000000006 0.031910399999999998 
-0.24246500000000001 0.041821900000000002 -0.19809299999999999 -0.26627899999999999 0.96383300000000005 -0.0110087 
-0.18798100000000001 -0.0080891999999999995 -0.13466900000000001 0.98797000000000001 -0.154277 0.010679900000000001 
-0.214251 -0.040210299999999997 -0.11573 -0.41805399999999998 0.908107 0.023910899999999999 
0.26433600000000002 -0.0186774 -0.082711699999999999 0.88645799999999997 -0.46272999999999997 0.0085879400000000005 
-0.271011 -0.016450900000000001 -0.23057900000000001 0.94098400000000004 0.338426 -0.00399285 
0.24949499999999999 -0.033544200000000003 -0.22198200000000001 -0.52907800000000005 0.84856200000000004 0.0043319700000000001 
-0.18731400000000001 0.0015381800000000001 -0.28611799999999998 0.99963100000000005 0.026563300000000001 0.0056547300000000002 
0.21335499999999999 -0.034156100000000002 -0.16408800000000001 0.41842699999999999 0.90807700000000002 -0.017768099999999998 
-0.27432699999999999 0.00036382999999999999 -0.32421299999999997 0.99367700000000003 -0.0132211 -0.111498 
-0.24603800000000001 0.040792799999999997 -0.167075 -0.39327600000000001 0.91941499999999998 0.0032632 
-0.19226199999999999 -0.020171399999999999 -0.102113 0.90319700000000003 -0.428761 0.020007899999999999 
-0.23507500000000001 0.043213099999999997 -0.088723899999999994 -0.083595900000000001 0.99645899999999998 0.0089901400000000006 
-0.27412700000000001 -0.0026566599999999999 -0.29852400000000001 0.99402199999999996 0.106476 -0.0241269 
-0.251498 -0.038247000000000003 -0.216782 0.476601 0.87903600000000004 -0.012125800000000001 
-0.21551699999999999 0.040800599999999999 -0.27953699999999998 0.32849099999999998 0.94450599999999996 -0.0016288800000000001 
-0.19991300000000001 -0.030554600000000001 -0.218193 -0.69851600000000003 0.71554499999999999 0.0083769399999999994 
-0.20182700000000001 0.032468900000000002 -0.216559 0.66920900000000005 0.74301099999999998 0.0097191900000000008 
0.19232099999999999 -0.000151543 -0.27026600000000001 0.99987499999999996 0.014369099999999999 -0.0065650600000000002 
-0.27333200000000002 -0.0089297999999999999 -0.181445 0.981568 0.190552 -0.014626500000000001 
0.233485 -0.038223899999999998 -0.14347399999999999 -0.070776500000000006 0.99749200000000005 0 
-0.25772400000000001 0.034136600000000003 -0.14144300000000001 -0.58494699999999999 0.810998 -0.010940399999999999 
0.20444100000000001 -0.027857199999999999 -0.253523 0.68161400000000005 0.73167000000000004 0.0078420999999999994 
-0.272756 0.011078899999999999 -0.265488 0.95776899999999998 -0.28743800000000003 0.00764016 
-0.257295 0.034436799999999997 -0.21671299999999999 -0.64246199999999998 0.76599899999999999 -0.022091599999999999 
0.258378 0.0265764 -0.31607099999999999 0.70868100000000001 0.70552899999999996 0 
0.26717600000000002 0.012167000000000001 -0.27228799999999997 0.93857599999999997 0.34488999999999997 -0.011227300000000001 
-0.195823 -0.025799300000000001 -0.074644100000000005 0.81523199999999996 -0.57911500000000005 -0.00479102 
0.25786300000000001 -0.0270923 -0.17252899999999999 0.75339900000000004 -0.65532500000000005 -0.0542196 
0.206343 -0.0296704 -0.089127300000000007 0.664489 0.74729800000000002 0 
-0.25259399999999999 -0.037729199999999997 -0.28476600000000002 0.477242 0.87871500000000002 -0.0100476 
-0.270204 0.018181300000000001 -0.19831799999999999 0.91492099999999998 -0.40362900000000002 -0.0019283200000000001 
-0.26887499999999998 0.021031299999999999 -0.125143 0.88325799999999999 -0.46886100000000003 -0.0049238900000000002 
-0.21584999999999999 -0.040955900000000003 -0.20275699999999999 -0.35060799999999998 0.93649499999999997 0.0071047100000000002 
0.26239800000000002 0.021628999999999999 -0.1918 0.82608099999999995 0.56272699999999998 0.030489499999999999 
-0.19539300000000001 0.0251848 -0.22861000000000001 0.80579999999999996 0.59168399999999999 0.024404800000000001 
0.26459199999999999 0.018128399999999999 -0.23736699999999999 0.871556 0.48995499999999997 0.0182913 
0.19237099999999999 -0.00072541800000000003 -0.27629599999999999 0.99756599999999995 0.069417199999999998 0.0065177300000000002 
-0.26460299999999998 -0.027387499999999999 -0.055731099999999999 0.77516300000000005 0.63174699999999995 0.0042532000000000004 
0.19786400000000001 0.019806299999999999 -0.191164 0.87381799999999998 -0.48625200000000002 -0.0012692599999999999 
-0.27217200000000003 -0.0132611 -0.32388800000000001 0.94395300000000004 0.31526399999999999 -0.097786700000000004 
0.25732699999999997 -0.027627599999999999 -0.24560000000000001 -0.67410899999999996 0.73861900000000003 0.0043896600000000001 
0.229605 -0.038359600000000001 -0.19323899999999999 0.026604599999999999 0.99963800000000003 -0.00403595 
-0.19008800000000001 -0.0155096 -0.266127 0.940056 -0.34099499999999999 -0.0040137300000000001 
0.23166200000000001 0.038383399999999998 -0.233594 0.021989000000000002 0.99963500000000005 0.0157295 
-0.27063999999999999 0.017246600000000001 -0.104171 0.92313299999999998 -0.38383 0.0223725 
0.267571 -0.010692800000000001 -0.043772899999999997 0.945025 -0.32696500000000001 0.00468558 
-0.26162400000000002 0.030556199999999999 -0.203406 -0.70022799999999996 0.71388099999999999 0.0073252200000000003 
0.25828099999999998 -0.026674300000000001 -0.299068 0.73989799999999994 -0.67266000000000004 0.0089282400000000005 
0.192915 -0.0067663200000000001 -0.31180999999999998 0.98920600000000003 0.14530999999999999 0.018879300000000002 
0.19690099999999999 0.018030899999999999 -0.198243 0.90461599999999998 -0.42615500000000001 0.0079112200000000001 
0.22636899999999999 0.038076499999999999 -0.26205200000000001 -0.087257199999999993 0.99586300000000005 -0.025364999999999999 
-0.22367100000000001 -0.042968800000000001 -0.27963100000000002 -0.18579899999999999 0.98257899999999998 -0.0042548799999999999 
-0.27319399999999999 0.0094458200000000006 -0.12604899999999999 0.98283500000000001 -0.18448100000000001 -0.0015283499999999999 
-0.20106299999999999 0.031704099999999999 -0.14185900000000001 0.67699900000000002 0.73595100000000002 -0.0069439599999999999 
-0.26553399999999999 0.0260576 -0.16422300000000001 0.80507099999999998 -0.59311100000000005 0.0088950699999999997 
0.200491 -0.023558599999999999 -0.093856999999999996 0.770706 0.63719199999999998 0 
0.20824799999999999 0.031004899999999998 -0.105168 -0.56935500000000006 0.82208199999999998 -0.0039693799999999998 
0.26871099999999998 0.0059418800000000001 -0.24968699999999999 0.98630099999999998 0.16347600000000001 0.0220389 
-0.27164100000000002 0.015099400000000001 -0.21051500000000001 0.93733200000000005 -0.34834300000000001 0.0080786499999999997 
-0.18781600000000001 -0.0072686000000000001 -0.045592000000000001 0.98168800000000001 -0.168546 0.088770199999999994 
-0.196022 0.026082299999999999 -0.14058000000000001 0.80200899999999997 0.59693799999999997 0.021133699999999998 
0.26666099999999998 -0.013691500000000001 -0.16351199999999999 0.92566800000000005 -0.378249 -0.0082195600000000008 
0.20059099999999999 0.023702000000000001 -0.32591799999999999 -0.64653400000000005 0.707677 0.28493299999999999 
0.19311400000000001 -0.0075066799999999999 -0.270312 0.97698200000000002 0.21310200000000001 -0.0096424800000000001 
0.26895599999999997 -0.0031393200000000001 -0.24762200000000001 0.99864299999999995 -0.0479032 -0.020431600000000001 
-0.27381699999999998 0.0061934499999999997 -0.14516100000000001 0.98469600000000002 -0.17036999999999999 0.036711500000000001 
-0.19701399999999999 -0.027499699999999998 -0.16069900000000001 0.76527900000000004 -0.64368700000000001 0.0038850400000000002 
0.20139599999999999 0.0248122 -0.114759 0.76266 -0.64599399999999996 -0.032272599999999999 
-0.21070900000000001 -0.038559000000000003 -0.089387900000000006 -0.45116699999999998 0.89229599999999998 -0.015978900000000001 
-0.21542 0.040755300000000001 -0.26552599999999998 0.37143799999999999 0.92844599999999999 0.0046760700000000001 
-0.238819 -0.042798799999999998 -0.141573 0.24501800000000001 0.96947300000000003 -0.0094432400000000003 
0.198712 -0.021017399999999999 -0.118183 0.83283200000000002 0.55352500000000004 0 
0.20474100000000001 -0.028157499999999999 -0.0256942 0.68344099999999997 0.72995299999999996 -0.0087109300000000004 
-0.27426200000000001 -0.0011071399999999999 -0.24233199999999999 0.99997100000000005 -0.0018345499999999999 0.00733813 
-0.22192799999999999 0.042586699999999998 -0.22759099999999999 0.20369999999999999 0.97902599999999995 -0.0038511399999999999 
0.266378 0.014297799999999999 -0.092739699999999994 0.93625199999999997 0.35081200000000001 -0.019057500000000002 
-0.27263700000000002 -0.011526 -0.317137 0.96717699999999995 0.25403900000000001 0.0057744500000000004 
0.20113700000000001 -0.024480600000000002 -0.10032099999999999 0.76681100000000002 0.64181100000000002 -0.0089372299999999991 
