-0.334708 0.054779 0.721423 -0.666795 -0.008692 -0.745190 
-0.318685 0.130551 0.720490 -0.667656 0.058000 -0.742207 
-0.317922 0.147606 0.700550 -0.664319 0.041122 -0.746317 
-0.348387 0.170911 0.707196 -0.696868 0.014151 -0.717059 
-0.348935 0.196134 0.676037 -0.684524 -0.005887 -0.728966 
-0.347831 0.249250 0.675327 -0.692045 0.006450 -0.721826 
-0.318611 0.268587 0.728837 -0.691428 0.012126 -0.722343 
-0.334989 0.320125 0.722850 -0.711231 0.051129 -0.701097 
-0.322558 0.386144 0.720403 -0.695600 -0.009286 -0.718369 
-0.353021 0.409596 0.716418 -0.695600 -0.009286 -0.718369 
-0.319813 0.414123 0.710277 -0.676350 -0.059030 -0.734211 
-0.317613 0.456434 0.680650 -0.636827 -0.054128 -0.769104 
-0.344840 0.493342 0.681107 -0.593362 -0.046446 -0.803595 
-0.339217 0.552281 0.694339 -0.577377 -0.043033 -0.815343 
-0.367360 0.612130 0.687281 -0.606514 -0.029283 -0.794534 
-0.367769 0.598290 0.679311 -0.606514 -0.029283 -0.794534 
-0.334783 0.677323 0.695065 -0.627336 -0.031481 -0.778112 
-0.335615 0.691145 0.701979 -0.627336 -0.031481 -0.778112 
-0.310296 0.031444 0.658288 -0.690456 -0.024714 -0.722952 
-0.304695 0.080525 0.668701 -0.669116 -0.008064 -0.743114 
-0.272185 0.110488 0.642610 -0.669116 -0.008064 -0.743114 
-0.295333 0.174861 0.653345 -0.673988 -0.011797 -0.738648 
-0.307639 0.186579 0.661398 -0.679555 -0.025731 -0.733173 
-0.266719 0.229277 0.646828 -0.635351 -0.033998 -0.771475 
-0.269747 0.268109 0.669854 -0.640836 0.014583 -0.767539 
-0.304238 0.316232 0.675302 -0.715191 0.049386 -0.697182 
-0.276527 0.317691 0.648413 -0.699375 -0.038924 -0.713695 
-0.319395 0.366699 0.656776 -0.735375 -0.044144 -0.676221 
-0.289328 0.418008 0.675670 -0.695824 0.039413 -0.717130 
-0.301424 0.444463 0.672428 -0.651230 -0.017305 -0.758683 
-0.273031 0.506924 0.660057 -0.606803 -0.014579 -0.794719 
-0.317523 0.499680 0.652865 -0.593362 -0.046446 -0.803594 
-0.263578 0.538210 0.677800 -0.590991 -0.081235 -0.802577 
-0.282376 0.575379 0.653865 -0.605181 -0.027425 -0.795615 
-0.291819 0.611061 0.668277 -0.627336 -0.031481 -0.778112 
-0.279976 0.675545 0.665745 -0.649307 -0.050382 -0.758856 
-0.310244 0.683118 0.685987 -0.627336 -0.031481 -0.778112 
-0.257179 0.054973 0.608580 -0.718441 0.026268 -0.695091 
-0.247934 0.071652 0.622644 -0.701001 0.029137 -0.712564 
-0.224415 0.090483 0.609403 -0.689193 0.002002 -0.724575 
-0.225030 0.137269 0.633544 -0.691568 0.023497 -0.721929 
-0.260016 0.176504 0.644306 -0.674099 -0.015909 -0.738470 
-0.258348 0.219460 0.629961 -0.659172 0.017630 -0.751786 
-0.252488 0.281072 0.607158 -0.586121 -0.076116 -0.806640 
-0.266425 0.303461 0.600443 -0.594070 -0.073511 -0.801047 
-0.220974 0.358021 0.639674 -0.683100 -0.002168 -0.730321 
-0.224585 0.365922 0.604120 -0.635793 -0.022899 -0.771520 
-0.270294 0.384678 0.616503 -0.695624 0.023339 -0.718027 
-0.251209 0.432690 0.621512 -0.677950 0.057271 -0.732873 
-0.273797 0.496469 0.651116 -0.635712 0.039982 -0.770891 
-0.223484 0.493137 0.620499 -0.687389 0.059832 -0.723821 
-0.250630 0.572708 0.608803 -0.706960 -0.072730 -0.703504 
-0.247718 0.584878 0.633871 -0.682880 -0.044069 -0.729200 
-0.262099 0.653602 0.608342 -0.681999 -0.069599 -0.728034 
-0.244321 0.677325 0.617300 -0.699293 -0.049430 -0.713124 
-0.248157 0.716280 0.604688 -0.685376 0.050662 -0.726425 
-0.191993 0.054117 0.572922 -0.741421 0.050391 -0.669146 
-0.185810 0.074010 0.566191 -0.754110 0.029915 -0.656067 
-0.210841 0.136118 0.588577 -0.722309 0.025965 -0.691083 
-0.216031 0.119789 0.573894 -0.750440 0.034370 -0.660044 
-0.215803 0.163182 0.586837 -0.703109 0.059759 -0.708567 
-0.196934 0.227451 0.609868 -0.687516 0.019730 -0.725901 
-0.178074 0.266217 0.590296 -0.680119 0.063483 -0.730348 
-0.186803 0.308205 0.584539 -0.633288 0.010968 -0.773839 
-0.182941 0.355735 0.568431 -0.632954 -0.061369 -0.771754 
-0.228249 0.396747 0.597206 -0.676124 0.040135 -0.735694 
-0.215902 0.388091 0.562163 -0.634228 0.013124 -0.773035 
-0.192080 0.445902 0.589535 -0.736188 0.016889 -0.676566 
-0.229567 0.470064 0.600528 -0.698145 0.027304 -0.715436 
-0.218577 0.540349 0.603196 -0.705999 -0.084717 -0.703128 
-0.197717 0.543265 0.591685 -0.731814 -0.115263 -0.671687 
-0.233353 0.593635 0.614076 -0.743811 -0.047920 -0.666669 
-0.214226 0.617343 0.566446 -0.679619 0.045466 -0.732155 
-0.207841 0.645486 0.571722 -0.692738 0.040095 -0.720074 
-0.221790 0.697637 0.581243 -0.693891 0.026151 -0.719605 
-0.163427 0.060535 0.579300 -0.754110 0.029915 -0.656067 
-0.191441 0.064129 0.547943 -0.754110 0.029915 -0.656067 
-0.194395 0.106310 0.529081 -0.756835 0.049062 -0.651762 
-0.175818 0.138485 0.549778 -0.775621 0.041222 -0.629851 
-0.187760 0.168367 0.578637 -0.730328 0.044774 -0.681628 
-0.197630 0.194785 0.536032 -0.710715 0.071303 -0.699857 
-0.163478 0.285137 0.543152 -0.686226 0.014686 -0.727240 
-0.192083 0.302829 0.572037 -0.641779 0.037227 -0.765986 
-0.175712 0.305765 0.552523 -0.704107 0.009758 -0.710027 
-0.192358 0.342829 0.571693 -0.640246 -0.073237 -0.764670 
-0.181923 0.427903 0.525005 -0.728631 -0.048926 -0.683156 
-0.159028 0.419598 0.560699 -0.743013 -0.026772 -0.668741 
-0.139931 0.452995 0.530605 -0.776740 -0.055449 -0.627376 
-0.147019 0.503941 0.568133 -0.775908 -0.086171 -0.624933 
-0.182170 0.534054 0.535631 -0.767565 -0.068206 -0.637332 
-0.177114 0.571585 0.546847 -0.772297 -0.022216 -0.634873 
-0.172682 0.623377 0.539733 -0.730779 0.093368 -0.676199 
-0.139919 0.645845 0.526512 -0.752151 0.108232 -0.650042 
-0.141148 0.715250 0.536809 -0.686017 0.168055 -0.707911 
-0.151029 0.049191 0.527386 -0.761102 0.148859 -0.631319 
-0.155874 0.075494 0.504798 -0.781628 0.068568 -0.619965 
-0.145040 0.127744 0.538736 -0.755850 0.036977 -0.653699 
-0.145964 0.143085 0.506614 -0.772452 0.071851 -0.630996 
-0.148635 0.175632 0.529555 -0.748762 0.151031 -0.645403 
-0.138021 0.221377 0.498543 -0.823541 0.045090 -0.565462 
-0.125450 0.249950 0.520992 -0.812615 0.033591 -0.581832 
-0.125197 0.277950 0.537537 -0.773060 0.056694 -0.631794 
-0.129024 0.343900 0.540045 -0.718982 -0.067666 -0.691727 
-0.110591 0.374218 0.525351 -0.740001 -0.090871 -0.666439 
-0.155219 0.430418 0.534558 -0.750921 -0.038845 -0.659248 
-0.163612 0.437274 0.521976 -0.750921 -0.038845 -0.659248 
-0.142939 0.482223 0.491043 -0.804407 -0.100419 -0.585530 
-0.149562 0.529239 0.516207 -0.786168 -0.035276 -0.617006 
-0.153504 0.544756 0.511419 -0.765734 -0.061319 -0.640227 
-0.151829 0.605846 0.521946 -0.786098 0.072049 -0.613888 
-0.165015 0.603915 0.508566 -0.795399 0.079733 -0.600818 
-0.117776 0.668621 0.530295 -0.725374 0.136237 -0.674739 
-0.112464 0.678968 0.530686 -0.750849 0.110864 -0.651102 
-0.124491 0.062052 0.464674 -0.806576 0.011183 -0.591025 
-0.134075 0.100465 0.483868 -0.810881 0.077573 -0.580046 
-0.119414 0.110439 0.477328 -0.779165 0.130933 -0.612992 
-0.107192 0.157817 0.489563 -0.768344 0.097993 -0.632491 
-0.108182 0.196564 0.487194 -0.827741 0.072800 -0.556367 
-0.082584 0.218188 0.489016 -0.829145 0.079993 -0.553280 
-0.118774 0.276724 0.498153 -0.791003 0.085056 -0.605871 
-0.127989 0.287666 0.472851 -0.866011 0.105315 -0.488808 
-0.080995 0.328852 0.455881 -0.895500 0.040532 -0.443212 
-0.127697 0.345393 0.476377 -0.776548 -0.030504 -0.629320 
-0.094946 0.400623 0.465105 -0.793446 -0.142329 -0.591765 
-0.129686 0.413293 0.506752 -0.769073 -0.046018 -0.637502 
-0.100610 0.498071 0.452364 -0.813293 -0.060229 -0.578729 
-0.098488 0.487432 0.467396 -0.817713 -0.019451 -0.575298 
-0.137942 0.568755 0.465963 -0.782297 -0.008544 -0.622847 
-0.116050 0.606685 0.453749 -0.770665 0.084870 -0.631564 
-0.134491 0.617887 0.499193 -0.731587 0.134111 -0.668427 
-0.134771 0.672423 0.480822 -0.750849 0.110864 -0.651102 
-0.121224 0.692512 0.501396 -0.751713 0.138905 -0.644696 
-0.109533 0.060973 0.434080 -0.852345 -0.051649 -0.520423 
-0.110948 0.050687 0.416773 -0.859096 -0.037437 -0.510444 
-0.062761 0.091119 0.447964 -0.839205 0.013739 -0.543641 
-0.091682 0.172755 0.417704 -0.889015 0.014474 -0.457650 
-0.103168 0.181059 0.441355 -0.871879 -0.017840 -0.489396 
-0.074684 0.238232 0.442578 -0.892439 0.025043 -0.450472 
-0.101264 0.250704 0.449276 -0.894926 0.062480 -0.441819 
-0.088414 0.272753 0.430900 -0.867654 0.025892 -0.496494 
-0.073150 0.344193 0.464043 -0.897247 0.032400 -0.440338 
-0.067911 0.386234 0.451865 -0.891078 -0.065869 -0.449044 
-0.095420 0.424946 0.435675 -0.862117 -0.067277 -0.502223 
-0.096826 0.426917 0.443118 -0.828770 -0.077338 -0.554220 
-0.081545 0.458994 0.422387 -0.877394 -0.122356 -0.463907 
-0.092108 0.497749 0.468568 -0.834366 -0.056162 -0.548342 
-0.071620 0.527807 0.437313 -0.848225 -0.037657 -0.528296 
-0.073428 0.594965 0.449333 -0.798672 0.027808 -0.601123 
-0.111954 0.616991 0.458970 -0.770665 0.084870 -0.631564 
-0.060947 0.652953 0.421393 -0.868626 0.122712 -0.480033 
-0.063153 0.677095 0.423196 -0.886762 0.035211 -0.460883 
-0.091171 0.015426 0.430093 -0.854830 -0.010516 -0.518801 
-0.071901 0.075881 0.397680 -0.867572 -0.012916 -0.497145 
-0.040716 0.098640 0.412841 -0.869008 -0.014923 -0.494572 
-0.089023 0.164874 0.377535 -0.928897 -0.021603 -0.369707 
-0.042101 0.199509 0.402102 -0.929723 -0.001694 -0.368257 
-0.052232 0.215941 0.398697 -0.933915 0.060541 -0.352332 
-0.094229 0.260691 0.424567 -0.884485 0.047530 -0.464142 
-0.072290 0.316942 0.377274 -0.943870 0.065027 -0.323855 
-0.039500 0.319512 0.411631 -0.864755 0.067651 -0.497616 
-0.048201 0.345509 0.424341 -0.884951 0.051870 -0.462786 
-0.069008 0.432386 0.395193 -0.932975 -0.091591 -0.348093 
-0.045925 0.421129 0.384040 -0.928426 -0.132453 -0.347103 
-0.051580 0.458895 0.395389 -0.934453 -0.047202 -0.352945 
-0.054933 0.512898 0.401323 -0.925767 0.041337 -0.375829 
-0.046971 0.578167 0.378131 -0.906038 0.062787 -0.418512 
-0.039264 0.606906 0.377085 -0.926410 -0.005544 -0.376475 
-0.048107 0.651977 0.425309 -0.879196 0.080616 -0.469591 
-0.089258 0.663767 0.430904 -0.839903 0.138392 -0.524796 
-0.059804 0.700347 0.384148 -0.890942 -0.056515 -0.450588 
-0.034395 0.040261 0.387805 -0.912809 -0.032365 -0.407103 
-0.055256 0.101470 0.361903 -0.897536 -0.028583 -0.440015 
-0.061439 0.090746 0.353828 -0.903029 -0.060914 -0.425240 
-0.071620 0.129539 0.395006 -0.867476 -0.006476 -0.497437 
-0.075261 0.163516 0.362449 -0.939077 -0.029640 -0.342427 
-0.040765 0.238492 0.343191 -0.935497 0.076199 -0.345020 
-0.062846 0.282791 0.379173 -0.956371 0.020984 -0.291401 
-0.078646 0.302055 0.368754 -0.956371 0.020984 -0.291401 
-0.038808 0.359974 0.339849 -0.959686 0.022126 -0.280202 
-0.063074 0.392400 0.396986 -0.925395 -0.055394 -0.374933 
-0.063333 0.426391 0.363080 -0.924620 -0.130503 -0.357837 
-0.050499 0.442908 0.391382 -0.925308 -0.054841 -0.375230 
-0.073991 0.504728 0.355059 -0.927410 0.028429 -0.372966 
-0.047711 0.524492 0.345732 -0.939965 0.088208 -0.329674 
-0.067540 0.555456 0.346488 -0.954830 0.076908 -0.287028 
-0.045925 0.565052 0.363965 -0.931647 0.087941 -0.352563 
-0.022223 0.623402 0.361034 -0.911391 0.012135 -0.411364 
-0.029830 0.661285 0.375679 -0.913324 0.023994 -0.406527 
-0.071184 0.675761 0.343020 -0.971630 0.047833 -0.231619 
-0.040362 0.040348 0.327225 -0.937458 0.080785 -0.338595 
-0.026922 0.057141 0.358008 -0.937023 0.015353 -0.348930 
-0.038735 0.113057 0.339849 -0.947774 -0.050329 -0.314948 
-0.042399 0.129224 0.333636 -0.942058 -0.054294 -0.331027 
-0.052961 0.205563 0.344276 -0.930886 0.008819 -0.365205 
-0.032637 0.239888 0.312389 -0.943434 -0.091611 -0.318654 
-0.023832 0.229166 0.350652 -0.930562 0.064034 -0.360492 
-0.045338 0.276487 0.353827 -0.956392 0.025249 -0.290992 
-0.036680 0.358787 0.348818 -0.961286 0.027243 -0.274204 
-0.034470 0.354551 0.359935 -0.957440 0.032254 -0.286826 
-0.040203 0.412604 0.342072 -0.947579 -0.050482 -0.315509 
-0.036852 0.415669 0.314239 -0.960282 0.014644 -0.278646 
-0.035834 0.457019 0.332007 -0.931356 -0.027651 -0.363057 
-0.026496 0.532000 0.327801 -0.947178 0.079343 -0.310738 
-0.025994 0.545385 0.320604 -0.948036 0.142625 -0.284405 
-0.064937 0.573722 0.340448 -0.935229 0.084122 -0.343904 
-0.033379 0.628177 0.328050 -0.952558 -0.011763 -0.304129 
-0.062750 0.643868 0.343746 -0.949785 0.005740 -0.312851 
-0.026577 0.705027 0.316299 -0.962073 -0.065793 -0.264741 
-0.041601 0.040895 0.309731 -0.939051 0.053104 -0.339651 
-0.023266 0.076759 0.308562 -0.957311 -0.085306 -0.276187 
-0.047205 0.126568 0.319827 -0.968647 -0.022862 -0.247388 
0.002904 0.129069 0.274238 -0.975925 -0.012099 -0.217771 
-0.041529 0.205729 0.291461 -0.958585 0.061997 -0.277978 
-0.042905 0.248943 0.298319 -0.942964 -0.081803 -0.322688 
-0.036901 0.250817 0.294697 -0.942964 -0.081803 -0.322688 
-0.003777 0.307864 0.271431 -0.955852 0.014786 -0.293475 
-0.047581 0.329543 0.279554 -0.948513 0.060819 -0.310844 
-0.004713 0.373245 0.317188 -0.964204 0.032331 -0.263185 
-0.036240 0.389811 0.305859 -0.958791 -0.011101 -0.283894 
-0.011787 0.452020 0.273132 -0.985458 0.024082 -0.168202 
-0.049351 0.475726 0.292084 -0.958310 -0.038694 -0.283097 
-0.037673 0.510967 0.318820 -0.966203 -0.006727 -0.257694 
-0.000505 0.547649 0.302557 -0.955461 0.093377 -0.279955 
-0.013951 0.599006 0.308365 -0.975782 -0.018167 -0.217992 
-0.008211 0.643347 0.305350 -0.973345 -0.036798 -0.226376 
-0.020171 0.637794 0.309780 -0.974712 -0.003356 -0.223442 
-0.010693 0.717089 0.275729 -0.976995 -0.060952 -0.204367 
-0.027001 0.021000 0.241785 -0.982852 -0.008161 -0.184215 
-0.029511 0.051952 0.255440 -0.980248 -0.024468 -0.196254 
-0.012389 0.101295 0.267073 -0.974037 0.005895 -0.226313 
-0.019645 0.159650 0.273640 -0.972541 -0.007036 -0.232625 
-0.029569 0.193347 0.247899 -0.984606 -0.026532 -0.172765 
0.005116 0.205946 0.253518 -0.983504 -0.075992 -0.164150 
-0.009033 0.265158 0.253562 -0.985803 0.036663 -0.163853 
-0.028794 0.308835 0.232365 -0.988604 0.098539 -0.113809 
-0.038971 0.332979 0.238619 -0.983172 0.043898 -0.177329 
-0.027524 0.353983 0.279480 -0.975393 0.025920 -0.218944 
-0.016285 0.395468 0.249206 -0.976432 0.020570 -0.214844 
-0.027886 0.447328 0.231646 -0.984049 -0.016158 -0.177164 
0.008928 0.481963 0.281619 -0.977659 0.003543 -0.210167 
-0.014824 0.513797 0.284411 -0.947514 0.033264 -0.317978 
-0.044912 0.562944 0.244996 -0.984073 -0.014457 -0.177177 
0.008499 0.590547 0.268619 -0.992615 0.003592 -0.121252 
-0.036385 0.614009 0.239463 -0.992254 0.010025 -0.123818 
-0.024333 0.677827 0.255901 -0.982862 0.072843 -0.169342 
-0.039302 0.690262 0.233298 -0.971370 0.060833 -0.229652 
-0.010942 0.027390 0.238870 -0.983820 -0.004145 -0.179111 
-0.039469 0.065354 0.230109 -0.987715 -0.040353 -0.150967 
-0.002187 0.117574 0.218837 -0.997889 -0.005734 -0.064683 
-0.020132 0.176111 0.204640 -0.999699 0.022618 -0.009491 
-0.022535 0.176870 0.196092 -0.999699 0.022618 -0.009491 
-0.035286 0.231058 0.238812 -0.983401 -0.005746 -0.181355 
0.006149 0.270370 0.230989 -0.968665 0.054808 -0.242250 
-0.037982 0.298939 0.232040 -0.978604 0.043375 -0.201130 
0.007144 0.327287 0.248418 -0.969158 0.057558 -0.239623 
-0.000523 0.364963 0.208315 -0.990803 0.033815 -0.131020 
-0.005038 0.431782 0.245940 -0.978308 -0.005301 -0.207088 
-0.018113 0.468757 0.247631 -0.981571 0.013484 -0.190620 
-0.002297 0.458713 0.225859 -0.989425 -0.028859 -0.142143 
-0.038376 0.503238 0.242532 -0.984163 -0.001418 -0.177261 
-0.029573 0.526844 0.223773 -0.994578 -0.044860 -0.093822 
-0.001477 0.566903 0.203188 -0.995876 0.004422 -0.090614 
0.004010 0.647009 0.192509 -0.988832 0.061750 -0.135639 
-0.029447 0.655126 0.224502 -0.984277 0.090287 -0.151812 
0.001182 0.704280 0.246279 -0.981401 0.026821 -0.190087 
0.010665 0.031531 0.182491 -0.989526 -0.058711 -0.131874 
0.002715 0.055489 0.169701 -0.984335 -0.092512 -0.150086 
0.014661 0.128115 0.188842 -0.998064 0.010705 -0.061267 
-0.028090 0.137624 0.175024 -0.996563 -0.057736 -0.059396 
-0.008614 0.212976 0.167715 -0.995668 0.092981 -0.000010 
-0.032260 0.228097 0.185931 -0.987804 0.113960 -0.106096 
0.015627 0.246961 0.212779 -0.971595 0.107515 -0.210816 
-0.020482 0.282487 0.156307 -0.991145 0.057351 -0.119762 
0.022125 0.309437 0.185540 -0.995200 -0.012218 -0.097096 
0.004514 0.358797 0.193200 -0.990803 0.033815 -0.131020 
-0.013765 0.391635 0.197592 -0.995436 0.004392 -0.095335 
-0.001553 0.452849 0.195647 -0.987042 -0.115098 -0.111804 
-0.016666 0.454304 0.193174 -0.987042 -0.115098 -0.111804 
0.008702 0.503565 0.186814 -0.993907 -0.096790 -0.052734 
0.000797 0.534769 0.188612 -0.994557 -0.005984 -0.104020 
-0.025919 0.597377 0.195343 -0.988677 0.040021 -0.144625 
-0.031906 0.650065 0.177345 -0.980433 0.106879 -0.165309 
0.008565 0.641257 0.184058 -0.985550 0.040544 -0.164459 
0.001216 0.724668 0.158381 -0.970357 0.169250 -0.172518 
0.015788 0.059453 0.145986 -0.991196 -0.086507 -0.100239 
-0.025663 0.067329 0.142154 -0.986302 -0.118102 -0.115149 
-0.029106 0.123511 0.135582 -0.997018 -0.075863 -0.014158 
-0.022960 0.136526 0.158951 -0.996863 -0.034562 -0.071201 
-0.016290 0.212606 0.123548 -0.992067 0.113830 -0.053348 
0.017913 0.214318 0.153723 -0.993296 0.114348 -0.016960 
-0.026020 0.230436 0.161786 -0.979666 0.167819 -0.109961 
-0.002616 0.311650 0.157428 -0.998534 -0.011023 -0.052995 
-0.027774 0.333933 0.130233 -0.989598 -0.008153 -0.143632 
-0.013156 0.353501 0.133213 -0.992336 -0.052336 -0.111937 
0.002800 0.430063 0.161726 -0.999763 0.010378 -0.019134 
0.008494 0.454742 0.129104 -0.989308 -0.089231 -0.115354 
-0.015298 0.496639 0.130690 -0.998285 -0.057641 0.010182 
-0.015664 0.502196 0.118764 -0.997033 -0.076398 0.009445 
-0.008937 0.574267 0.144694 -0.997965 0.050588 0.038809 
-0.014710 0.603703 0.159145 -0.991643 0.073899 -0.105747 
0.008462 0.618074 0.127050 -0.989326 0.145680 0.003237 
0.017869 0.683166 0.166985 -0.970357 0.169250 -0.172518 
0.002055 0.671119 0.158348 -0.973079 0.136053 -0.186027 
0.005180 0.015660 0.106259 -0.907589 -0.343233 -0.241811 
-0.013058 0.102124 0.129636 -0.988159 -0.137857 -0.067359 
0.000122 0.104356 0.119759 -0.989709 -0.142690 0.010743 
0.001854 0.140009 0.089861 -0.992881 -0.037456 -0.113067 
-0.004181 0.173293 0.136948 -0.997561 0.067551 0.017572 
-0.024221 0.228292 0.082685 -0.986674 0.138216 -0.085857 
0.022984 0.265194 0.127942 -0.989975 0.082568 -0.114594 
-0.010737 0.279220 0.108642 -0.996701 0.080432 -0.010852 
-0.018241 0.334016 0.120839 -0.998433 -0.044832 -0.033499 
0.024035 0.363057 0.138595 -0.996884 -0.078692 -0.005518 
0.004359 0.395037 0.089467 -0.970840 0.037078 -0.236842 
-0.019810 0.457240 0.132457 -0.989561 -0.132954 -0.055609 
-0.004753 0.452392 0.127168 -0.989308 -0.089231 -0.115354 
-0.019508 0.530075 0.098155 -0.999234 0.006938 0.038510 
-0.028563 0.531672 0.082823 -0.997762 0.000361 -0.066864 
0.003039 0.578764 0.101220 -0.987190 0.136434 -0.082717 
0.009943 0.619388 0.107669 -0.975619 0.196662 -0.097428 
-0.018202 0.662288 0.089027 -0.995673 0.091459 -0.016449 
0.022298 0.703290 0.127075 -0.955579 0.232603 -0.181007 
0.008992 0.041853 0.098138 -0.904408 -0.377536 -0.198781 
0.015873 0.075271 0.048062 -0.766416 -0.453522 -0.454889 
-0.003100 0.135443 0.052638 -0.942286 -0.181450 -0.281378 
-0.017203 0.153559 0.102116 -0.998823 -0.035065 -0.033511 
-0.010289 0.195121 0.071084 -0.984273 0.139844 -0.107938 
-0.016104 0.213323 0.047034 -0.989092 0.090170 -0.116473 
0.021229 0.285269 0.096046 -0.995691 0.008690 -0.092320 
0.026637 0.288841 0.054940 -0.805005 0.033112 -0.592343 
0.020095 0.337733 0.046285 -0.980984 0.051401 -0.187159 
-0.021812 0.341690 0.057628 -0.991284 -0.075156 -0.108205 
0.014138 0.433982 0.047221 -0.938808 0.002680 -0.344430 
-0.015516 0.418861 0.062520 -0.983776 0.063980 -0.167607 
-0.004588 0.507874 0.071526 -0.934403 -0.149681 -0.323244 
-0.023769 0.541695 0.055079 -0.915158 0.131508 -0.381040 
0.000157 0.570488 0.070334 -0.912398 0.094907 -0.398150 
-0.015830 0.585673 0.082451 -0.955233 0.130570 -0.265483 
-0.005757 0.644684 0.065249 -0.987117 0.157190 0.029856 
0.002092 0.679378 0.076610 -0.972324 0.222092 -0.072527 
0.006420 0.688991 0.100655 -0.946487 0.319698 -0.044216 
0.008236 0.084977 0.050624 -0.808571 -0.389262 -0.441235 
-0.027509 0.103213 0.055136 -0.940917 -0.149527 -0.303837 
-0.018931 0.125000 0.039800 -0.952810 -0.169157 -0.252068 
-0.024410 0.192361 0.008818 -0.770312 -0.139125 -0.622305 
0.012577 0.227233 0.009097 -0.378367 -0.147477 -0.913832 
0.019719 0.274371 0.034458 -0.762105 0.052567 -0.645316 
-0.013657 0.314554 0.018149 -0.963215 -0.013157 -0.268409 
-0.011080 0.359960 0.051354 -0.959523 -0.130937 -0.249342 
-0.002883 0.382007 0.021829 -0.628269 0.051247 -0.776307 
0.006821 0.399346 0.008920 -0.638624 0.056002 -0.767478 
0.011317 0.431464 0.018085 -0.611822 -0.032085 -0.790344 
0.021823 0.456466 0.027729 -0.535937 -0.024863 -0.843892 
-0.000014 0.488591 0.023070 -0.844927 0.025337 -0.534281 
-0.022631 0.547967 0.064663 -0.925788 0.172900 -0.336187 
-0.018397 0.580937 0.048898 -0.895999 0.086758 -0.435498 
0.026824 0.654118 0.055373 -0.931338 0.134874 -0.338258 
-0.004824 0.659237 0.065440 -0.977511 0.200125 -0.066495 
0.023689 0.705755 0.065434 -0.590960 0.769493 -0.242171 
0.005689 0.030812 0.014404 -0.595623 -0.637201 -0.489089 
-0.016215 0.068784 0.023546 -0.768372 -0.373340 -0.519829 
0.028236 0.093928 -0.015722 -0.205338 -0.123688 -0.970844 
-0.010618 0.148853 -0.008442 -0.610182 -0.104390 -0.785354 
-0.007403 0.195564 -0.004288 -0.513578 -0.154224 -0.844069 
-0.021727 0.243226 0.028178 -0.968271 0.120339 -0.219020 
-0.016754 0.253266 -0.017863 -0.413881 0.069569 -0.907669 
-0.026002 0.285140 -0.014346 -0.510581 0.009990 -0.859772 
0.007797 0.317410 -0.025597 -0.339684 0.000982 -0.940539 
-0.014323 0.372761 -0.014787 -0.538915 0.130281 -0.832225 
0.014748 0.427240 -0.005723 -0.422830 -0.132293 -0.896501 
-0.025480 0.423553 0.013770 -0.822562 -0.010899 -0.568571 
-0.017550 0.465009 0.013332 -0.829637 -0.002814 -0.558295 
0.023975 0.507443 -0.017541 -0.365907 0.070749 -0.927958 
-0.015202 0.566441 0.024657 -0.826510 0.179190 -0.533641 
-0.022182 0.578358 0.021665 -0.846959 -0.097709 -0.522603 
0.026782 0.609879 0.014987 -0.457826 -0.208620 -0.864218 
-0.020564 0.673221 -0.009461 -0.646828 0.227728 -0.727842 
-0.019191 0.671235 0.007903 -0.834212 0.223765 -0.504004 
0.056267 0.072820 0.022024 -0.220896 -0.286830 -0.932166 
0.035407 0.081366 -0.022811 -0.162796 -0.158455 -0.973853 
0.058475 0.119565 0.002722 -0.135400 -0.086617 -0.986998 
0.008518 0.198342 0.024271 -0.547771 -0.092506 -0.831498 
0.060139 0.227326 0.000768 -0.108311 0.124669 -0.986269 
0.045231 0.232081 0.024147 -0.367029 0.169088 -0.914712 
0.032773 0.297802 0.019335 -0.092493 0.127775 -0.987481 
0.009005 0.332907 0.025133 -0.748669 0.176525 -0.639010 
0.037587 0.379132 0.025501 -0.501585 0.019122 -0.864897 
0.022306 0.377059 -0.003131 -0.413487 -0.004327 -0.910500 
0.035582 0.468383 0.007981 -0.258759 0.066179 -0.963672 
0.045390 0.469412 0.025948 -0.259407 0.023611 -0.965479 
0.035836 0.524122 0.014253 -0.383763 0.064867 -0.921151 
0.061344 0.541015 0.023451 -0.262275 0.032892 -0.964432 
0.031046 0.590853 -0.015833 -0.381863 -0.138698 -0.913752 
0.012443 0.607618 0.020059 -0.738258 -0.245677 -0.628186 
0.010163 0.672194 -0.008206 -0.534053 0.253863 -0.806437 
0.011463 0.682721 0.001544 -0.534053 0.253863 -0.806437 
0.086023 0.040544 0.007578 -0.055611 -0.331372 -0.941860 
0.099630 0.073763 0.010791 -0.009469 -0.051870 -0.998609 
0.061655 0.087164 -0.026413 -0.091238 -0.098682 -0.990928 
0.057519 0.148786 0.027346 -0.292866 -0.052195 -0.954728 
0.087239 0.199959 -0.011095 -0.019707 0.021432 -0.999576 
0.083220 0.200348 -0.012711 -0.006093 0.031039 -0.999500 
0.061719 0.271900 -0.019278 -0.074317 0.052075 -0.995874 
0.082617 0.315962 0.020795 -0.086236 -0.078159 -0.993204 
0.091530 0.356011 -0.028205 -0.004294 -0.140161 -0.990119 
0.060591 0.373705 0.015918 -0.199743 -0.140507 -0.969722 
0.060708 0.400908 -0.020905 -0.135451 0.075068 -0.987936 
0.099216 0.448371 -0.017248 -0.002247 0.108464 -0.994098 
0.100202 0.467098 -0.008535 0.032552 0.072405 -0.996844 
0.050093 0.485158 -0.024270 -0.112956 0.094445 -0.989101 
0.054668 0.573441 0.016676 -0.439088 0.111038 -0.891556 
0.055067 0.572488 0.022013 -0.439088 0.111038 -0.891556 
0.061581 0.645598 -0.016527 -0.173241 -0.057391 -0.983206 
0.092729 0.666064 0.012054 -0.209913 0.128656 -0.969218 
0.044455 0.720978 0.004804 -0.197404 0.878413 -0.435227 
0.122609 0.059523 0.025890 -0.035150 -0.033971 -0.998805 
0.082158 0.072415 0.007496 -0.009469 -0.051870 -0.998609 
0.105206 0.089954 0.026586 0.005167 -0.065381 -0.997847 
0.092734 0.157944 0.001718 0.062015 0.001552 -0.998074 
0.130661 0.175916 0.021574 -0.047464 -0.087419 -0.995040 
0.103148 0.231143 -0.024025 -0.097858 0.069574 -0.992765 
0.094301 0.243069 0.020491 -0.160121 0.100072 -0.982012 
0.113200 0.304197 0.028985 -0.066326 0.026272 -0.997452 
0.115387 0.333571 0.010378 0.026054 -0.089551 -0.995641 
0.107044 0.368074 -0.022350 0.107417 -0.021129 -0.993989 
0.082195 0.388639 0.028870 -0.236208 -0.077772 -0.968585 
0.123763 0.468220 0.004362 -0.038475 0.121224 -0.991879 
0.123058 0.453342 0.021779 0.010461 0.062599 -0.997984 
0.137191 0.507691 0.025424 -0.031456 0.079916 -0.996305 
0.089512 0.547297 0.002802 0.071083 -0.004349 -0.997461 
0.087558 0.587946 0.024265 -0.165652 -0.022556 -0.985926 
0.104883 0.625953 -0.020476 0.028260 -0.060030 -0.997796 
0.095139 0.682451 0.029139 -0.272016 0.164436 -0.948139 
0.104602 0.703088 -0.001853 -0.046526 0.124023 -0.991188 
0.168221 0.060192 0.018214 0.003036 0.000586 -0.999995 
0.152037 0.099624 0.025455 0.032640 -0.084938 -0.995852 
0.135512 0.106593 -0.004967 0.025724 -0.057724 -0.998001 
0.128006 0.131248 -0.000044 0.065343 -0.118610 -0.990789 
0.123400 0.203118 -0.005474 -0.010822 0.002244 -0.999939 
0.132341 0.199716 0.001449 -0.030450 -0.075747 -0.996662 
0.133744 0.284235 0.013255 0.046041 0.034047 -0.998359 
0.120563 0.309758 0.007517 -0.045864 0.041876 -0.998070 
0.168030 0.351020 0.027775 0.092400 -0.131106 -0.987053 
0.118781 0.367421 -0.018530 0.073871 -0.092854 -0.992936 
0.130619 0.392158 0.007952 0.080880 -0.087808 -0.992849 
0.159949 0.442539 0.028979 0.076637 -0.045187 -0.996035 
0.173586 0.494286 0.029857 0.069701 -0.057352 -0.995918 
0.118655 0.512513 0.006991 -0.039721 0.079823 -0.996017 
0.139413 0.527420 0.000880 -0.061124 0.087238 -0.994311 
0.139376 0.598261 0.005634 -0.060251 -0.033809 -0.997611 
0.134814 0.642883 0.017216 -0.024525 0.068347 -0.997360 
0.146264 0.661721 -0.008409 0.076388 0.084685 -0.993475 
0.119729 0.697104 -0.005268 0.018873 0.158967 -0.987104 
0.160490 0.040080 0.012399 0.012848 -0.057677 -0.998253 
0.191108 0.078678 0.018024 -0.031248 -0.014239 -0.999410 
0.163631 0.134588 0.002252 -0.008791 -0.127610 -0.991785 
0.156312 0.119323 0.023753 -0.033788 -0.115229 -0.992764 
0.206970 0.208211 0.009354 0.182011 0.013724 -0.983201 
0.197411 0.211914 -0.000603 0.159693 0.042188 -0.986265 
0.195332 0.244359 -0.012349 0.153080 0.125991 -0.980149 
0.157532 0.275804 0.013604 0.131189 0.085997 -0.987620 
0.192983 0.335827 0.028429 0.069647 -0.078914 -0.994446 
0.184183 0.380812 -0.004965 0.136820 -0.079913 -0.987367 
0.184107 0.376571 0.023923 0.080562 -0.105710 -0.991128 
0.196033 0.432722 -0.007267 0.101066 0.017819 -0.994720 
0.183309 0.470727 -0.018744 0.053833 -0.027189 -0.998180 
0.164611 0.520119 0.017275 -0.064318 0.036734 -0.997253 
0.209027 0.553578 -0.011074 0.070995 0.086320 -0.993735 
0.195687 0.612097 0.022131 0.109073 0.037703 -0.993318 
0.163754 0.641220 0.028341 0.100181 0.086025 -0.991243 
0.165477 0.674400 -0.008132 0.102287 0.101711 -0.989541 
0.169798 0.685038 0.024873 0.092352 0.056696 -0.994111 
0.239959 0.030452 -0.015070 0.116584 -0.098054 -0.988329 
0.232258 0.091298 -0.010728 0.160765 0.021118 -0.986767 
0.245022 0.087224 -0.017575 0.141711 0.049847 -0.988652 
0.227340 0.154559 -0.005965 0.115380 -0.010495 -0.993266 
0.211154 0.155448 0.006996 0.141124 -0.002822 -0.989988 
0.199778 0.191861 -0.002997 0.177723 -0.022668 -0.983819 
0.232207 0.247237 0.005972 0.211753 0.058630 -0.975563 
0.193759 0.321683 0.029289 0.139142 -0.068200 -0.987921 
0.209300 0.339348 -0.007926 0.097216 -0.061850 -0.993340 
0.208248 0.374201 0.030109 0.115288 -0.104699 -0.987799 
0.208496 0.390741 0.018568 0.087879 -0.064162 -0.994063 
0.246008 0.457691 0.001546 0.138395 -0.015936 -0.990249 
0.223270 0.490560 -0.018004 0.078126 -0.075866 -0.994053 
0.223157 0.497845 -0.002533 0.100365 -0.071713 -0.992363 
0.219309 0.573328 0.001527 0.052179 0.096552 -0.993959 
0.198506 0.599676 -0.001847 0.127137 0.021364 -0.991655 
0.234534 0.599877 -0.003778 0.171669 0.068985 -0.982737 
0.239568 0.677736 0.035313 0.167891 0.052008 -0.984433 
0.236251 0.694389 0.032557 0.167781 0.095638 -0.981174 
0.266823 0.041454 -0.012079 0.210587 0.041523 -0.976693 
0.241852 0.098572 0.030199 0.155296 0.110037 -0.981721 
0.248592 0.093492 0.039195 0.210680 0.140411 -0.967419 
0.278214 0.144946 -0.006163 0.342167 0.130274 -0.930565 
0.273600 0.156197 0.039361 0.327566 0.074869 -0.941857 
0.245265 0.228206 0.040207 0.246550 0.095265 -0.964437 
0.255800 0.268886 0.016801 0.167929 -0.018404 -0.985627 
0.280986 0.288976 0.032676 0.133571 -0.026642 -0.990681 
0.228781 0.327272 0.045295 0.066316 -0.084879 -0.994182 
0.240863 0.367472 0.013908 0.039363 -0.059872 -0.997430 
0.251228 0.402134 -0.006684 0.021559 -0.089689 -0.995736 
0.244495 0.448661 0.036070 0.147070 0.022740 -0.988865 
0.272027 0.471705 0.028145 0.254723 -0.049805 -0.965731 
0.233028 0.490869 0.035925 0.176340 -0.043656 -0.983361 
0.275055 0.561478 0.037039 0.218969 0.040154 -0.974905 
0.273603 0.566840 0.011081 0.226464 0.095393 -0.969337 
0.267570 0.616877 0.032497 0.209063 0.081432 -0.974506 
0.257792 0.646647 0.042433 0.207470 0.057689 -0.976539 
0.247039 0.673992 0.005257 0.163249 0.048198 -0.985407 
0.267957 0.053981 0.045937 0.210587 0.041522 -0.976693 
0.312756 0.051736 0.022581 0.298972 0.069160 -0.951752 
0.281924 0.112872 0.022522 0.331994 0.039691 -0.942446 
0.314314 0.158972 0.021324 0.151920 -0.018883 -0.988212 
0.271441 0.161428 0.044615 0.327566 0.074869 -0.941857 
0.266522 0.223734 0.042965 0.311390 -0.014204 -0.950176 
0.276571 0.250784 0.049078 0.212299 -0.048264 -0.976012 
0.301473 0.307541 0.045477 0.207723 -0.083114 -0.974650 
0.310534 0.314418 0.022987 0.242337 -0.076217 -0.967194 
0.295827 0.365849 -0.001224 0.199601 0.043320 -0.978919 
0.314356 0.408925 0.009211 0.225625 0.095233 -0.969549 
0.275362 0.433431 0.051938 0.283649 -0.031482 -0.958411 
0.321585 0.478320 0.038118 0.271693 -0.071201 -0.959746 
0.283150 0.524883 0.001139 0.258086 -0.093608 -0.961577 
0.320336 0.528886 0.030636 0.212623 -0.068097 -0.974759 
0.313773 0.570308 0.035913 0.289985 0.001950 -0.957029 
0.290903 0.633696 0.011486 0.210523 0.060429 -0.975719 
0.266741 0.686016 -0.002622 0.184638 0.048710 -0.981599 
0.309822 0.674479 0.026810 0.233154 0.019454 -0.972245 
0.311659 0.056449 0.042379 0.298972 0.069160 -0.951752 
0.313095 0.091394 0.034534 0.332195 0.059991 -0.941301 
0.309327 0.106844 0.048616 0.335778 0.032264 -0.941389 
0.312022 0.172084 0.063602 0.219230 -0.009774 -0.975624 
0.350628 0.166268 0.013617 0.261846 -0.063437 -0.963023 
0.302062 0.218198 0.020587 0.218394 0.034495 -0.975251 
0.303919 0.250606 0.024736 0.113214 -0.088368 -0.989633 
0.307205 0.294532 0.020758 0.173668 -0.073932 -0.982025 
0.323532 0.303154 0.028116 0.159007 -0.054904 -0.985750 
0.317891 0.346209 0.012697 0.271821 0.014773 -0.962235 
0.354408 0.389801 0.047987 0.384645 0.085120 -0.919131 
0.344712 0.449798 0.045886 0.339736 -0.081904 -0.936948 
0.318645 0.471110 0.048852 0.301726 -0.020766 -0.953169 
0.344099 0.531294 0.026628 0.250076 -0.072772 -0.965488 
0.355468 0.522447 0.007267 0.303264 -0.032619 -0.952348 
0.327496 0.570250 0.057850 0.235371 0.032097 -0.971375 
0.302681 0.644930 0.034621 0.239668 0.029493 -0.970407 
0.304824 0.644301 0.043913 0.229783 0.026286 -0.972887 
0.335682 0.672213 0.053265 0.211552 0.029977 -0.976907 
0.361981 0.063576 0.042280 0.300492 -0.004712 -0.953773 
0.349313 0.066769 0.043333 0.307375 -0.011327 -0.951521 
0.345787 0.118163 0.066036 0.266656 0.000748 -0.963792 
0.393752 0.135747 0.039026 0.318388 -0.065655 -0.945684 
0.353783 0.189587 0.044656 0.243742 -0.093476 -0.965325 
0.373376 0.220569 0.024144 0.281762 -0.014834 -0.959370 
0.389819 0.271609 0.035212 0.418920 0.037574 -0.907245 
0.360157 0.269478 0.048633 0.282572 -0.089900 -0.955024 
0.384852 0.339832 0.020357 0.378128 0.028438 -0.925316 
0.370168 0.338502 0.047720 0.394267 0.047686 -0.917758 
0.364380 0.400924 0.074342 0.437140 0.102515 -0.893532 
0.371864 0.437063 0.057012 0.387887 0.015165 -0.921582 
0.373660 0.452596 0.060420 0.347087 -0.121555 -0.929922 
0.377798 0.501352 0.067843 0.320720 -0.089762 -0.942911 
0.369654 0.523570 0.074247 0.362198 -0.127611 -0.923324 
0.376833 0.573002 0.028299 0.312610 0.045489 -0.948792 
0.343425 0.624505 0.041825 0.251239 0.059694 -0.966083 
0.351613 0.666000 0.021533 0.211552 0.029977 -0.976907 
0.390130 0.691587 0.064887 0.394805 0.032330 -0.918196 
0.429516 0.036135 0.075152 0.464799 -0.061686 -0.883265 
0.410538 0.056514 0.061891 0.386223 -0.124791 -0.913925 
0.415905 0.124005 0.086036 0.444110 -0.032116 -0.895397 
0.412878 0.126900 0.081802 0.407012 0.022829 -0.913138 
0.378303 0.203337 0.049729 0.403708 -0.060475 -0.912887 
0.386722 0.221812 0.072204 0.420862 -0.041312 -0.906183 
0.424098 0.245497 0.050749 0.478398 0.010105 -0.878085 
0.397440 0.270116 0.041589 0.430331 0.035738 -0.901964 
0.400878 0.303449 0.082945 0.438170 0.113601 -0.891685 
0.406854 0.393439 0.092219 0.464079 0.072868 -0.882792 
0.376812 0.375586 0.074281 0.457398 0.057208 -0.887420 
0.423867 0.416056 0.036966 0.482358 -0.039543 -0.875081 
0.404259 0.467958 0.077996 0.401020 -0.076157 -0.912898 
0.418284 0.513934 0.043299 0.373770 -0.043938 -0.926480 
0.423662 0.526909 0.036715 0.402740 -0.021844 -0.915054 
0.432196 0.585504 0.048763 0.469881 0.018010 -0.882546 
0.403302 0.635534 0.066560 0.399203 0.057454 -0.915060 
0.406687 0.644676 0.062369 0.407651 0.112359 -0.906199 
0.377358 0.677684 0.046682 0.403683 0.022738 -0.914617 
0.437715 0.011604 0.083944 0.471724 -0.008075 -0.881709 
0.447078 0.060415 0.088094 0.496265 -0.080721 -0.864411 
0.441568 0.087919 0.064181 0.502240 -0.065351 -0.862255 
0.449885 0.166182 0.083522 0.537787 -0.054119 -0.841342 
0.466932 0.174651 0.080006 0.569027 -0.051584 -0.820699 
0.428081 0.235450 0.111058 0.519818 -0.078821 -0.850633 
0.463972 0.229643 0.105686 0.617208 -0.022889 -0.786467 
0.434270 0.296350 0.060326 0.493538 0.068034 -0.867060 
0.461862 0.358475 0.109851 0.480609 0.064530 -0.874558 
0.411924 0.358915 0.072348 0.487059 0.107525 -0.866725 
0.446783 0.427720 0.058683 0.445264 -0.111305 -0.888454 
0.415358 0.455921 0.109249 0.426655 -0.097395 -0.899155 
0.434203 0.493691 0.108235 0.481232 -0.046919 -0.875337 
0.459440 0.508327 0.088186 0.524271 -0.041975 -0.850516 
0.413290 0.567368 0.083886 0.485013 0.024985 -0.874150 
0.433007 0.609201 0.056844 0.449491 0.037832 -0.892483 
0.443417 0.597821 0.100564 0.517291 0.057802 -0.853856 
0.463056 0.666288 0.102318 0.502719 0.117785 -0.856388 
0.423457 0.708237 0.065174 0.455260 0.140552 -0.879195 
0.481300 0.055308 0.113844 0.581934 -0.045484 -0.811963 
0.480388 0.093443 0.106629 0.595630 -0.037471 -0.802385 
0.448197 0.087883 0.133988 0.529560 -0.034437 -0.847573 
0.450413 0.134653 0.085477 0.536022 0.002325 -0.844201 
0.472265 0.177157 0.088560 0.576484 -0.077064 -0.813466 
0.483118 0.198615 0.111266 0.589860 -0.106716 -0.800423 
0.487970 0.254593 0.092210 0.602414 -0.016463 -0.798014 
0.503829 0.291279 0.093134 0.588850 0.004473 -0.808230 
0.505705 0.319430 0.124687 0.594704 -0.048952 -0.802453 
0.492553 0.349440 0.123539 0.582063 0.048202 -0.811714 
0.492557 0.399108 0.125830 0.567570 0.084880 -0.818938 
0.501796 0.436697 0.126192 0.569101 0.019610 -0.822034 
0.489417 0.468132 0.122965 0.541578 -0.036828 -0.839843 
0.448711 0.496655 0.081591 0.470852 -0.029800 -0.881709 
0.494963 0.561670 0.130485 0.598728 -0.055037 -0.799059 
0.505688 0.591963 0.113769 0.621412 0.018724 -0.783261 
0.456599 0.627891 0.133137 0.564691 0.041653 -0.824250 
0.503534 0.641296 0.087884 0.556510 0.100189 -0.824778 
0.478922 0.699245 0.134522 0.569290 0.056277 -0.820209 
0.509122 0.032397 0.128075 0.625003 0.014122 -0.780495 
0.540547 0.069571 0.154745 0.671158 -0.097049 -0.734934 
0.513914 0.109089 0.158619 0.661850 -0.025780 -0.749193 
0.518050 0.134438 0.132624 0.661850 -0.025780 -0.749193 
0.516557 0.183913 0.153270 0.646632 0.001540 -0.762801 
0.521970 0.228612 0.160451 0.635288 -0.052172 -0.770511 
0.533267 0.249873 0.120190 0.610248 -0.016779 -0.792033 
0.519257 0.270729 0.137475 0.645387 -0.003308 -0.763849 
0.507903 0.345784 0.125503 0.599651 0.003125 -0.800255 
0.498257 0.368733 0.110615 0.592846 0.059406 -0.803122 
0.486283 0.393098 0.108757 0.511920 0.074943 -0.855758 
0.497485 0.455688 0.116807 0.503837 -0.008591 -0.863756 
0.498338 0.469603 0.111716 0.594358 -0.011100 -0.804124 
0.532310 0.523025 0.137844 0.620553 -0.035775 -0.783348 
0.524146 0.551115 0.107831 0.583416 -0.044172 -0.810971 
0.527386 0.592415 0.124888 0.595793 -0.002695 -0.803133 
0.542346 0.637355 0.142707 0.577834 0.050980 -0.814561 
0.540880 0.653360 0.149247 0.577834 0.050980 -0.814561 
0.534304 0.701231 0.137749 0.632774 0.053547 -0.772483 
0.525409 0.028201 0.153467 0.662405 -0.039601 -0.748099 
0.575482 0.100008 0.153119 0.675234 -0.070051 -0.734270 
0.569215 0.098020 0.189154 0.743757 -0.029051 -0.667818 
0.565241 0.159255 0.174926 0.711997 0.003127 -0.702175 
0.576155 0.199664 0.145436 0.699953 -0.046009 -0.712705 
0.537413 0.214197 0.191352 0.685485 -0.048533 -0.726467 
0.527980 0.248542 0.183966 0.699822 -0.001933 -0.714315 
0.540291 0.296675 0.151981 0.663406 -0.013410 -0.748140 
0.567189 0.331794 0.160058 0.738279 0.057687 -0.672024 
0.538332 0.369975 0.159196 0.751381 0.036744 -0.658844 
0.565509 0.409824 0.145205 0.712822 0.003006 -0.701338 
0.542146 0.461449 0.181330 0.720998 -0.059469 -0.690381 
0.535534 0.485815 0.162533 0.649431 -0.060149 -0.758038 
0.554388 0.531563 0.167586 0.741052 -0.086463 -0.665858 
0.540835 0.573976 0.144334 0.613170 -0.038397 -0.789017 
0.531412 0.565172 0.192822 0.710412 -0.053567 -0.701745 
0.568926 0.621887 0.152174 0.643286 0.062592 -0.763063 
0.572028 0.641805 0.189430 0.712395 0.027964 -0.701222 
0.523113 0.714639 0.151314 0.599125 0.012211 -0.800563 
0.586175 0.017554 0.205856 0.719065 -0.055038 -0.692760 
0.596870 0.050402 0.229131 0.750451 -0.065120 -0.657710 
0.582732 0.128041 0.223098 0.786251 -0.020347 -0.617572 
0.582939 0.121641 0.219664 0.786251 -0.020347 -0.617572 
0.589135 0.176315 0.187177 0.717940 0.013417 -0.695976 
0.609009 0.227375 0.197223 0.747142 -0.063012 -0.661671 
0.611201 0.255075 0.209524 0.724400 0.003296 -0.689373 
0.601280 0.267008 0.224784 0.707848 0.019507 -0.706096 
0.565019 0.340806 0.198730 0.708888 0.041649 -0.704090 
0.578139 0.341447 0.207991 0.734877 0.039976 -0.677021 
0.568022 0.415262 0.216755 0.779995 0.022265 -0.625390 
0.603410 0.432728 0.212070 0.794719 -0.057396 -0.604257 
0.589536 0.462613 0.225849 0.779465 -0.044324 -0.624876 
0.593800 0.537331 0.179227 0.748808 -0.041162 -0.661507 
0.599160 0.559489 0.180907 0.746747 -0.080151 -0.660261 
0.575300 0.612243 0.202410 0.743625 -0.021523 -0.668251 
0.567446 0.606848 0.185113 0.743990 -0.002292 -0.668187 
0.599490 0.660248 0.187784 0.726664 0.043583 -0.685610 
0.565609 0.685411 0.180449 0.679752 0.064758 -0.730577 
0.596142 0.042472 0.262712 0.773322 -0.019949 -0.633700 
0.627151 0.068909 0.217953 0.770781 -0.055173 -0.634707 
0.618426 0.081792 0.227807 0.771960 -0.079223 -0.630715 
0.630686 0.128615 0.264514 0.800306 -0.057569 -0.596822 
0.597077 0.162502 0.236409 0.757651 -0.026774 -0.652111 
0.650552 0.238311 0.271647 0.796196 -0.077937 -0.599998 
0.645066 0.260265 0.268026 0.787719 0.008623 -0.615975 
0.619912 0.299655 0.240612 0.690518 0.063891 -0.720488 
0.637694 0.355792 0.240126 0.737308 0.108116 -0.666849 
0.596109 0.345927 0.262431 0.768640 0.111885 -0.629821 
0.608485 0.380262 0.245811 0.779812 0.041759 -0.624619 
0.636267 0.422971 0.267900 0.768629 -0.009786 -0.639620 
0.599866 0.466787 0.215307 0.777113 -0.048072 -0.627522 
0.623175 0.512549 0.260023 0.759088 -0.014156 -0.650834 
0.653050 0.540044 0.269423 0.795915 -0.040539 -0.604050 
0.622005 0.594344 0.262532 0.779365 -0.058294 -0.623853 
0.616730 0.596003 0.241976 0.784860 -0.064257 -0.616332 
0.649485 0.656277 0.251639 0.770658 -0.062812 -0.634146 
0.637420 0.689644 0.260912 0.769434 0.041586 -0.637371 
0.634101 0.028798 0.280424 0.778349 0.013401 -0.627689 
0.647053 0.043600 0.286054 0.782893 -0.017919 -0.621898 
0.639127 0.102800 0.291566 0.775218 -0.041357 -0.630339 
0.634035 0.156563 0.272644 0.804175 -0.079435 -0.589061 
0.687591 0.199678 0.294145 0.767547 -0.114193 -0.630740 
0.644255 0.194951 0.302618 0.793216 -0.135178 -0.593747 
0.689681 0.282466 0.272662 0.797628 0.048534 -0.601194 
0.651150 0.309325 0.272465 0.788736 0.108752 -0.605036 
0.660347 0.335628 0.269015 0.755306 0.091839 -0.648906 
0.640819 0.375989 0.307794 0.744917 0.086498 -0.661527 
0.637226 0.431945 0.314569 0.768362 -0.041131 -0.638692 
0.649233 0.443202 0.298189 0.767732 -0.036127 -0.639752 
0.671185 0.460390 0.295679 0.784642 -0.035818 -0.618914 
0.660667 0.524639 0.314014 0.748314 -0.035887 -0.662374 
0.647502 0.573720 0.266823 0.779701 -0.034497 -0.625201 
0.663030 0.575138 0.311721 0.721523 -0.064647 -0.689366 
0.651429 0.605295 0.312232 0.751211 -0.039384 -0.658886 
0.648536 0.690213 0.262292 0.782099 0.011655 -0.623046 
0.659554 0.707146 0.305679 0.757936 -0.042219 -0.650961 
0.690711 0.011221 0.357279 0.752669 0.014752 -0.658234 
0.711172 0.068879 0.327079 0.759838 0.018860 -0.649839 
0.707888 0.128169 0.363423 0.758521 0.001962 -0.651646 
0.702745 0.157898 0.366483 0.771547 -0.065691 -0.632772 
0.687718 0.178915 0.339927 0.769077 -0.075186 -0.634719 
0.688757 0.221862 0.366120 0.795324 -0.031034 -0.605390 
0.694341 0.233717 0.340890 0.800188 -0.013136 -0.599606 
0.721720 0.309067 0.312538 0.808368 0.011547 -0.588564 
0.674068 0.355862 0.335855 0.757925 0.062697 -0.649322 
0.700579 0.384585 0.366022 0.782393 0.072983 -0.618494 
0.714002 0.428949 0.365969 0.772439 0.023840 -0.634641 
0.698887 0.429122 0.324081 0.778254 0.026716 -0.627381 
0.708513 0.503250 0.367513 0.737584 -0.060347 -0.672554 
0.700735 0.485674 0.328775 0.744997 -0.054962 -0.664800 
0.673706 0.531366 0.317138 0.737732 -0.049510 -0.673276 
0.719284 0.609450 0.332018 0.766366 -0.044236 -0.640879 
0.701524 0.651313 0.335696 0.766366 -0.044236 -0.640879 
0.693984 0.665830 0.322480 0.773072 -0.064885 -0.630991 
0.721985 0.686653 0.327957 0.781704 -0.045804 -0.621966 
0.762314 0.016284 0.410195 0.761900 0.009301 -0.647628 
0.720411 0.081875 0.392475 0.762015 0.004480 -0.647543 
0.743044 0.109300 0.373517 0.751040 -0.011896 -0.660150 
0.759442 0.156909 0.374717 0.771547 -0.065691 -0.632772 
0.738797 0.201121 0.399179 0.792429 0.004142 -0.609950 
0.732284 0.218604 0.407226 0.814141 0.019666 -0.580334 
0.750639 0.250993 0.400168 0.819283 -0.007969 -0.573333 
0.757234 0.278806 0.407116 0.817508 0.004889 -0.575897 
0.731492 0.343032 0.407577 0.796118 0.012556 -0.605011 
0.711924 0.354099 0.373976 0.796477 0.013379 -0.604521 
0.762479 0.410283 0.407832 0.770081 0.015107 -0.637767 
0.741320 0.445790 0.395435 0.726835 -0.032852 -0.686026 
0.736609 0.461604 0.380877 0.743571 -0.046717 -0.667023 
0.723237 0.508706 0.376936 0.730734 -0.063037 -0.679746 
0.755873 0.573250 0.423772 0.764775 -0.004064 -0.644285 
0.760233 0.613316 0.372791 0.768149 -0.032056 -0.639468 
0.753810 0.637080 0.390621 0.768149 -0.032056 -0.639468 
0.743655 0.665991 0.399483 0.766755 -0.032733 -0.641105 
0.718026 0.705785 0.391556 0.781704 -0.045804 -0.621966 
