0.295765584000000	0.920170613000000	0.426418109000000		
0.292542656000000	0.923641458000000	0.109083702000000		
0.287534723000000	0.959291995000000	0.168583904000000		
0.299137262000000	0.908815942000000	0.247917505000000		
0.274345511000000	0.957110321000000	0.069416901000000		
0.285997634000000	0.925228180000000	0.069416901000000		
0.282625956000000	0.962713257000000	0.228084105000000		
0.285948051000000	0.934351494000000	0.446251510000000		
0.285948051000000	0.928153557000000	0.495835011000000		
0.280890534000000	0.977786641000000	0.109083702000000		
0.295963918000000	0.932616072000000	0.059500201000000		
0.292493073000000	0.942929440000000	0.000000000000000		
0.300872684000000	0.924881045000000	0.059500201000000		
0.299087678000000	0.921806868000000	0.406584709000000		
0.281039284000000	0.938516508000000	0.317334407000000		
0.275932183000000	0.954036144000000	0.307417707000000		
0.302508940000000	0.907576354000000	0.059500201000000		
0.283419292000000	0.942780689000000	0.109083702000000		
0.307417707000000	0.913328090000000	0.366917908000000		
0.290856817000000	0.965836968000000	0.119000403000000		
0.299137262000000	0.918633524000000	0.466084910000000		
0.295815167000000	0.916947636000000	0.535501812000000		
0.279303862000000	0.977786641000000	0.128917103000000		
0.292592240000000	0.917294770000000	0.347084507000000		
0.300872684000000	0.901576800000000	0.386751308000000		
0.292592240000000	0.929988146000000	0.426418109000000		
0.295963918000000	0.913030589000000	0.317334407000000		
0.282576373000000	0.996033369000000	0.059500201000000		
0.274345511000000	0.957110321000000	0.376834608000000		
0.283468876000000	0.948929043000000	0.079333602000000		
0.285948051000000	0.931376484000000	0.416501409000000		
0.289270145000000	0.927508971000000	0.386751308000000		
0.279303862000000	0.977786641000000	0.148750503000000		
0.280840950000000	0.947491122000000	0.277667606000000		
0.281882204000000	0.948978627000000	0.267750906000000		
0.279799697000000	0.944565695000000	0.297501006000000		
0.285948051000000	0.931376484000000	0.515668411000000		
0.307417707000000	0.913328090000000	0.019833400000000		
0.289170978000000	0.940202347000000	0.079333602000000		
0.302409773000000	0.911096832000000	0.446251510000000		
0.295914334000000	0.935888583000000	0.168583904000000		
0.300723934000000	0.915063512000000	0.119000403000000		
0.295021831000000	0.927806472000000	0.138833803000000		
0.292493073000000	0.904452643000000	0.406584709000000		
0.279204695000000	0.950813167000000	0.386751308000000		
0.280890534000000	0.983885362000000	0.406584709000000		
0.280791367000000	0.962762840000000	0.168583904000000		
0.302409773000000	0.911096832000000	0.277667606000000		
0.285997634000000	0.971787087000000	0.029750101000000		
0.295963918000000	0.913030589000000	0.168583904000000		
0.307417707000000	0.913328090000000	0.416501409000000		
0.285105131000000	0.939210677000000	0.039666801000000		
0.295864751000000	0.929293977000000	0.386751308000000		
0.285848884000000	0.943772359000000	0.267750906000000		
0.297501006000000	0.919278060000000	0.138833803000000		
0.285997634000000	0.968762444000000	0.009916700000000		
0.285105131000000	0.942185687000000	0.327251107000000		
0.284262212000000	0.934847280000000	0.009916700000000		
0.295864751000000	0.906535150000000	0.039666801000000		
0.302459357000000	0.928351891000000	0.168583904000000		
0.284262212000000	0.943970693000000	0.039666801000000		
0.277618022000000	0.963010758000000	0.039666801000000		
0.298343926000000	0.927112303000000	0.198334004000000		
0.299186845000000	0.952052754000000	0.000000000000000		
0.302508940000000	0.931475651000000	0.307417707000000		
0.294228495000000	0.907030935000000	0.575168612000000		
0.295765584000000	0.939210677000000	0.128917103000000		
0.279353445000000	0.947491122000000	0.247917505000000		
0.284311795000000	0.978034559000000	0.069416901000000		
0.279353445000000	0.938665259000000	0.019833400000000		
0.287633890000000	0.930831066000000	0.337167807000000		
0.276031350000000	0.959986164000000	0.485918310000000		
0.282675540000000	0.968861561000000	0.079333602000000		
0.298244759000000	0.923542241000000	0.069416901000000		
0.294228495000000	0.907030935000000	0.495835011000000		
0.295963918000000	0.913030589000000	0.327251107000000		
0.275932183000000	0.954036144000000	0.446251510000000		
0.305731868000000	0.910055529000000	0.366917908000000		
0.280940117000000	0.932268987000000	0.148750503000000		
0.290906401000000	0.927211470000000	0.495835011000000		
0.287584306000000	0.924831462000000	0.545418512000000		
0.300872684000000	0.901576800000000	0.376834608000000		
0.289270145000000	0.920666398000000	0.347084507000000		
0.284311795000000	0.993355860000000	0.158667203000000		
0.299087678000000	0.921806868000000	0.039666801000000		
0.280940117000000	0.956614437000000	0.128917103000000		
0.295864751000000	0.906535150000000	0.000000000000000		
0.274345511000000	0.957110321000000	0.426418109000000		
0.297550590000000	0.948780343000000	0.138833803000000		
0.290856817000000	0.930335231000000	0.485918310000000		
0.300872684000000	0.901576800000000	0.188417304000000		
0.279849280000000	0.945011947000000	0.297501006000000		
0.299137262000000	0.955523699000000	0.009916700000000		
0.295765584000000	0.920170613000000	0.138833803000000		
0.271866336000000	0.964349562000000	0.247917505000000		
0.297550590000000	0.902717220000000	0.148750503000000		
0.289270145000000	0.927508971000000	0.089250302000000		
0.280791367000000	0.962762840000000	0.079333602000000		
0.289220562000000	0.946499452000000	0.297501006000000		
0.304095612000000	0.917294770000000	0.386751308000000		
0.279849280000000	0.945011947000000	0.327251107000000		
0.282625956000000	0.984034212000000	0.059500201000000		
0.284311795000000	0.947044870000000	0.198334004000000		
0.287683473000000	0.971687870000000	0.188417304000000		
0.284361379000000	0.940946100000000	0.049583501000000		
0.297501006000000	0.919278060000000	0.198334004000000		
0.292592240000000	0.917294770000000	0.128917103000000		
0.284212628000000	0.931872319000000	0.019833400000000		
0.292592240000000	0.917294770000000	0.277667606000000		
0.276080934000000	0.966084935000000	0.029750101000000		
0.282675540000000	0.925971882000000	0.327251107000000		
0.290955984000000	0.968613743000000	0.029750101000000		
0.294228495000000	0.907030935000000	0.049583501000000		
0.289319729000000	0.937029003000000	0.019833400000000		
0.277618022000000	0.974811681000000	0.119000403000000		
0.276080934000000	0.966084935000000	0.386751308000000		
0.277618022000000	0.971985371000000	0.178500604000000		
0.297501006000000	0.919278060000000	0.049583501000000		
0.282725123000000	0.950366965000000	0.039666801000000		
0.285898467000000	0.956267402000000	0.128917103000000		
0.284311795000000	0.950218215000000	0.138833803000000		
0.300872684000000	0.931574818000000	0.247917505000000		
0.290955984000000	0.946400285000000	0.307417707000000		
0.297550590000000	0.902717220000000	0.059500201000000		
0.274345511000000	0.966134568000000	0.168583904000000		
0.290856817000000	0.943177357000000	0.079333602000000		
0.285105131000000	0.939210677000000	0.208250704000000		
0.274395095000000	0.960134915000000	0.466084910000000		
0.284262212000000	0.934847280000000	0.386751308000000		
0.285898467000000	0.940747766000000	0.099167002000000		
0.284163045000000	0.959490280000000	0.228084105000000		
0.274494262000000	0.954333645000000	0.307417707000000		
0.297501006000000	0.935591082000000	0.228084105000000		
0.285948051000000	0.931376484000000	0.009916700000000		
0.297401839000000	0.922501037000000	0.109083702000000		
0.282625956000000	0.934996129000000	0.287584306000000		
0.285154715000000	0.948333992000000	0.039666801000000		
0.282625956000000	0.962713257000000	0.138833803000000		
0.284311795000000	0.990132933000000	0.158667203000000		
0.281039284000000	0.980811235000000	0.218167405000000		
0.272758839000000	0.968861561000000	0.029750101000000		
0.272659672000000	0.957308705000000	0.089250302000000		
0.282576373000000	0.959688663000000	0.267750906000000		
0.282675540000000	0.931971536000000	0.376834608000000		
0.279353445000000	0.968911194000000	0.168583904000000		
0.277717189000000	0.969010312000000	0.386751308000000		
0.294327662000000	0.910353129000000	0.575168612000000		
0.297501006000000	0.908815942000000	0.396668009000000		
0.287534723000000	0.956118651000000	0.247917505000000		
0.294178912000000	0.926517301000000	0.426418109000000		
0.299137262000000	0.908815942000000	0.664418914000000		
0.300922268000000	0.908220989000000	0.019833400000000		
0.287683473000000	0.971687870000000	0.099167002000000		
0.280940117000000	0.956614437000000	0.277667606000000		
0.294030161000000	0.920121079000000	0.456168210000000		
0.284311795000000	0.950218215000000	0.218167405000000		
0.271122584000000	0.966134568000000	0.376834608000000		
0.300872684000000	0.901576800000000	0.000000000000000		
0.281832620000000	0.945656532000000	0.307417707000000		
0.274295928000000	0.963010758000000	0.178500604000000		
0.279303862000000	0.941789019000000	0.257834206000000		
0.281832620000000	0.939706512000000	0.000000000000000		
0.307268956000000	0.923492707000000	0.247917505000000		
0.286096801000000	0.990232149000000	0.138833803000000		
0.295914334000000	0.935888583000000	0.347084507000000		
0.294178912000000	0.926517301000000	0.039666801000000		
0.284262212000000	0.928153557000000	0.198334004000000		
0.292592240000000	0.949375295000000	0.059500201000000		
0.296707670000000	0.924286043000000	0.396668009000000		
0.280940117000000	0.986810838000000	0.099167002000000		
0.284311795000000	0.925575214000000	0.039666801000000		
0.285997634000000	0.950069464000000	0.069416901000000		
0.277618022000000	0.963010758000000	0.327251107000000		
0.304145196000000	0.914022259000000	0.000000000000000		
0.302409773000000	0.934847280000000	0.089250302000000		
0.279303862000000	0.941789019000000	0.426418109000000		
0.274494262000000	0.954333645000000	0.505751711000000		
0.299186845000000	0.905394779000000	0.277667606000000		
0.282675540000000	0.941293184000000	0.009916700000000		
0.290955984000000	0.921013532000000	0.347084507000000		
0.294129328000000	0.923294423000000	0.178500604000000		
0.294278079000000	0.912435587000000	0.654502214000000		
0.297501006000000	0.925723965000000	0.208250704000000		
0.281832620000000	0.942582405000000	0.109083702000000		
0.305731868000000	0.910055529000000	0.188417304000000		
0.277568439000000	0.953837810000000	0.019833400000000		
0.282675540000000	0.980910402000000	0.198334004000000		
0.275981767000000	0.974811681000000	0.327251107000000		
0.279849280000000	0.945011947000000	0.119000403000000		
0.274395095000000	0.960134915000000	0.168583904000000		
0.284311795000000	0.993355860000000	0.238000805000000		
0.280989701000000	0.935343164000000	0.039666801000000		
0.287633890000000	0.978084093000000	0.089250302000000		
0.303996445000000	0.924236410000000	0.089250302000000		
0.299137262000000	0.908815942000000	0.089250302000000		
0.272709256000000	0.966134568000000	0.347084507000000		
0.287584306000000	0.984331663000000	0.257834206000000		
0.304194779000000	0.907526820000000	0.188417304000000		
0.279303862000000	0.983835828000000	0.000000000000000		
0.289170978000000	0.956069117000000	0.079333602000000		
0.302508940000000	0.904353476000000	0.515668411000000		
0.274295928000000	0.963010758000000	0.079333602000000		
0.272659672000000	0.963159508000000	0.376834608000000		
0.292592240000000	0.949375295000000	0.148750503000000		
0.289270145000000	0.933954826000000	0.386751308000000		
0.290856817000000	0.955870734000000	0.158667203000000		
0.305731868000000	0.910055529000000	0.337167807000000		
0.304194779000000	0.907526820000000	0.019833400000000		
0.294228495000000	0.907030935000000	0.059500201000000		
0.297550590000000	0.902717220000000	0.039666801000000		
0.295716000000000	0.922897705000000	0.238000805000000		
0.284361379000000	0.937971090000000	0.347084507000000		
0.289270145000000	0.933954826000000	0.049583501000000		
0.281832620000000	0.942582405000000	0.317334407000000		
0.275981767000000	0.974811681000000	0.039666801000000		
0.280840950000000	0.947491122000000	0.347084507000000		
0.284212628000000	0.987058805000000	0.148750503000000		
0.285848884000000	0.983984579000000	0.119000403000000		
0.290955984000000	0.949524045000000	0.069416901000000		
0.276080934000000	0.977538674000000	0.009916700000000		
0.294178912000000	0.936285251000000	0.327251107000000		
0.294278079000000	0.912435587000000	0.089250302000000		
0.286691803000000	0.939111461000000	0.238000805000000		
0.295815167000000	0.945706116000000	0.000000000000000		
0.280890534000000	0.977786641000000	0.267750906000000		
0.289220562000000	0.943474858000000	0.327251107000000		
0.284311795000000	0.968762444000000	0.297501006000000		
0.295815167000000	0.916947636000000	0.327251107000000		
0.275981767000000	0.957060738000000	0.178500604000000		
0.294129328000000	0.916798885000000	0.565251912000000		
0.286691803000000	0.939111461000000	0.059500201000000		
0.295021831000000	0.924682761000000	0.257834206000000		
0.284262212000000	0.928153557000000	0.515668411000000		
0.277618022000000	0.963010758000000	0.267750906000000		
0.282675540000000	0.931971536000000	0.000000000000000		
0.277618022000000	0.963010758000000	0.406584709000000		
0.292592240000000	0.933211123000000	0.079333602000000		
0.285105131000000	0.945408615000000	0.228084105000000		
0.285997634000000	0.971787087000000	0.158667203000000		
0.305880618000000	0.917046852000000	0.128917103000000		
0.290955984000000	0.921013532000000	0.029750101000000		
0.287633890000000	0.949871180000000	0.317334407000000		
0.295021831000000	0.927806472000000	0.158667203000000		
0.307318540000000	0.916402316000000	0.357001208000000		
0.272858006000000	0.960085331000000	0.396668009000000		
0.300823101000000	0.904799728000000	0.545418512000000		
0.289170978000000	0.940202347000000	0.257834206000000		
0.285948051000000	0.928153557000000	0.446251510000000		
0.285105131000000	0.942185687000000	0.039666801000000		
0.295963918000000	0.932616072000000	0.109083702000000		
0.299186845000000	0.905394779000000	0.466084910000000		
0.285848884000000	0.983984579000000	0.019833400000000		
0.282625956000000	0.938070257000000	0.198334004000000		
0.294178912000000	0.936285251000000	0.188417304000000		
0.294228495000000	0.907030935000000	0.069416901000000		
0.304095612000000	0.910948082000000	0.119000403000000		
0.295815167000000	0.945706116000000	0.069416901000000		
0.295765584000000	0.952151971000000	0.069416901000000		
0.295716000000000	0.922897705000000	0.406584709000000		
0.291005568000000	0.914567677000000	0.466084910000000		
0.279353445000000	0.965836968000000	0.406584709000000		
0.279303862000000	0.974811681000000	0.009916700000000		
0.294129328000000	0.916798885000000	0.485918310000000		
0.280890534000000	0.983885362000000	0.396668009000000		
0.289121395000000	0.988000793000000	0.089250302000000		
0.274444678000000	0.971886155000000	0.168583904000000		
0.294178912000000	0.926517301000000	0.238000805000000		
0.292542656000000	0.913476840000000	0.228084105000000		
0.286096801000000	0.990232149000000	0.158667203000000		
0.292542656000000	0.913476840000000	0.406584709000000		
0.280940117000000	0.941541102000000	0.148750503000000		
0.302508940000000	0.924980212000000	0.287584306000000		
0.282625956000000	0.956515319000000	0.000000000000000		
0.282675540000000	0.931971536000000	0.416501409000000		
0.300823101000000	0.918236856000000	0.039666801000000		
0.280989701000000	0.935343164000000	0.257834206000000		
0.297501006000000	0.906287233000000	0.416501409000000		
0.284311795000000	0.950218215000000	0.119000403000000		
0.282675540000000	0.925971882000000	0.188417304000000		
0.277618022000000	0.957060738000000	0.238000805000000		
0.280940117000000	0.941541102000000	0.376834608000000		
0.282625956000000	0.928798192000000	0.148750503000000		
0.299137262000000	0.918633524000000	0.436334809000000		
0.271866336000000	0.964349562000000	0.327251107000000		
0.286741387000000	0.945309398000000	0.297501006000000		
0.287584306000000	0.924831462000000	0.138833803000000		
0.279303862000000	0.941789019000000	0.456168210000000		
0.290856817000000	0.955870734000000	0.128917103000000		
0.295914334000000	0.925922349000000	0.277667606000000		
0.281832620000000	0.945656532000000	0.099167002000000		
0.285898467000000	0.940747766000000	0.178500604000000		
0.279303862000000	0.941789019000000	0.317334407000000		
0.277717189000000	0.969010312000000	0.168583904000000		
0.277568439000000	0.953837810000000	0.476001610000000		
0.276080934000000	0.951061134000000	0.287584306000000		
0.277618022000000	0.963010758000000	0.366917908000000		
0.282675540000000	0.993058359000000	0.039666801000000		
0.272709256000000	0.966134568000000	0.535501812000000		
0.297501006000000	0.919278060000000	0.247917505000000		
0.297550590000000	0.916104716000000	0.505751711000000		
0.282675540000000	0.968861561000000	0.218167405000000		
0.299186845000000	0.905394779000000	0.396668009000000		
0.292542656000000	0.913476840000000	0.555335212000000		
0.299137262000000	0.938863642000000	0.039666801000000		
0.299137262000000	0.918633524000000	0.247917505000000		
0.276080934000000	0.951061134000000	0.535501812000000		
0.290856817000000	0.965836968000000	0.019833400000000		
0.296658087000000	0.921112699000000	0.456168210000000		
0.280940117000000	0.941541102000000	0.327251107000000		
0.280989701000000	0.935343164000000	0.029750101000000		
0.307268956000000	0.923492707000000	0.267750906000000		
0.300773517000000	0.928351891000000	0.138833803000000		
0.282675540000000	0.925971882000000	0.168583904000000		
0.302508940000000	0.907576354000000	0.158667203000000		
0.287584306000000	0.924831462000000	0.228084105000000		
0.282625956000000	0.956515319000000	0.128917103000000		
0.277766773000000	0.950763633000000	0.704085715000000		
0.302360190000000	0.921311033000000	0.119000403000000		
0.284311795000000	0.947044870000000	0.059500201000000		
0.297501006000000	0.908815942000000	0.148750503000000		
0.307516874000000	0.919922695000000	0.069416901000000		
0.295716000000000	0.922897705000000	0.247917505000000		
0.286691803000000	0.939111461000000	0.000000000000000		
0.287683473000000	0.927806472000000	0.178500604000000		
0.277618022000000	0.963010758000000	0.009916700000000		
0.295864751000000	0.929293977000000	0.198334004000000		
0.282576373000000	0.944317778000000	0.138833803000000		
0.289170978000000	0.940202347000000	0.029750101000000		
0.282576373000000	0.947193621000000	0.337167807000000		
0.277618022000000	0.959936630000000	0.604918713000000		
0.300823101000000	0.934996129000000	0.168583904000000		
0.282526789000000	0.977935392000000	0.247917505000000		
0.295765584000000	0.952151971000000	0.148750503000000		
0.289270145000000	0.930831066000000	0.119000403000000		
0.292542656000000	0.907576354000000	0.128917103000000		
0.292542656000000	0.907576354000000	0.386751308000000		
0.271866336000000	0.964349562000000	0.733835816000000		
0.281039284000000	0.959936630000000	0.128917103000000		
0.300872684000000	0.931574818000000	0.119000403000000		
0.281039284000000	0.959936630000000	0.019833400000000		
0.274444678000000	0.971886155000000	0.029750101000000		
0.289220562000000	0.924385161000000	0.119000403000000		
0.282576373000000	0.947193621000000	0.208250704000000		
0.281832620000000	0.942582405000000	0.138833803000000		
0.282625956000000	0.929046060000000	0.476001610000000		
0.279849280000000	0.945011947000000	0.287584306000000		
0.287584306000000	0.934103577000000	0.327251107000000		
0.298294342000000	0.920468114000000	0.178500604000000		
0.289220562000000	0.924385161000000	0.347084507000000		
0.272659672000000	0.963159508000000	0.604918713000000		
0.284212628000000	0.987058805000000	0.218167405000000		
0.289270145000000	0.920666398000000	0.575168612000000		
0.284311795000000	0.978034559000000	0.128917103000000		
0.305880618000000	0.917046852000000	0.347084507000000		
0.294327662000000	0.910353129000000	0.327251107000000		
0.277618022000000	0.957060738000000	0.099167002000000		
0.294228495000000	0.907030935000000	0.238000805000000		
0.282625956000000	0.929046060000000	0.168583904000000		
0.305731868000000	0.923641458000000	0.168583904000000		
0.285997634000000	0.925228180000000	0.416501409000000		
0.292542656000000	0.920368947000000	0.089250302000000		
0.302409773000000	0.911096832000000	0.337167807000000		
0.284212628000000	0.931872319000000	0.317334407000000		
0.282675540000000	0.993058359000000	0.238000805000000		
0.285997634000000	0.981108736000000	0.148750503000000		
0.289121395000000	0.988000793000000	0.099167002000000		
0.271866336000000	0.964349562000000	0.416501409000000		
0.297401839000000	0.922501037000000	0.000000000000000		
0.298244759000000	0.923542241000000	0.277667606000000		
0.305731868000000	0.910055529000000	0.119000403000000		
0.304095612000000	0.917294770000000	0.366917908000000		
0.281039284000000	0.965787434000000	0.148750503000000		
0.295815167000000	0.916947636000000	0.277667606000000		
0.294129328000000	0.916798885000000	0.307417707000000		
0.285898467000000	0.956267402000000	0.029750101000000		
0.280791367000000	0.962762840000000	0.089250302000000		
0.279204695000000	0.950813167000000	0.585085313000000		
0.282625956000000	0.934996129000000	0.406584709000000		
0.281039284000000	0.980811235000000	0.148750503000000		
0.292542656000000	0.923641458000000	0.009916700000000		
0.279303862000000	0.977786641000000	0.009916700000000		
0.292542656000000	0.907576354000000	0.049583501000000		
0.279204695000000	0.953639476000000	0.208250704000000		
0.295765584000000	0.942532772000000	0.208250704000000		
0.283419292000000	0.945557365000000	0.000000000000000		
0.281039284000000	0.992909609000000	0.119000403000000		
0.285948051000000	0.928153557000000	0.287584306000000		
0.295914334000000	0.948929043000000	0.019833400000000		
0.279353445000000	0.980712018000000	0.079333602000000		
0.295815167000000	0.916947636000000	0.009916700000000		
0.302508940000000	0.904353476000000	0.456168210000000		
0.287633890000000	0.930831066000000	0.376834608000000		
0.289220562000000	0.952647806000000	0.228084105000000		
0.277618022000000	0.971985371000000	0.009916700000000		
0.292493073000000	0.962267055000000	0.128917103000000		
0.284361379000000	0.937971090000000	0.079333602000000		
0.284163045000000	0.959490280000000	0.238000805000000		
0.305880618000000	0.913427257000000	0.396668009000000		
0.292592240000000	0.917294770000000	0.327251107000000		
0.295864751000000	0.906535150000000	0.733835816000000		
0.283419292000000	0.939706512000000	0.178500604000000		
0.298343926000000	0.927112303000000	0.059500201000000		
0.297501006000000	0.908815942000000	0.049583501000000		
0.300872684000000	0.901576800000000	0.654502214000000		
0.274345511000000	0.957110321000000	0.148750503000000		
0.292542656000000	0.913476840000000	0.287584306000000		
0.292493073000000	0.904452643000000	0.376834608000000		
0.290955984000000	0.921013532000000	0.089250302000000		
0.274345511000000	0.966134568000000	0.109083702000000		
0.272659672000000	0.963159508000000	0.049583501000000		
0.279303862000000	0.974811681000000	0.357001208000000		
0.280940117000000	0.941541102000000	0.119000403000000		
0.297550590000000	0.916104716000000	0.138833803000000		
0.277568439000000	0.953837810000000	0.456168210000000		
0.272709256000000	0.966134568000000	0.287584306000000		
0.271866336000000	0.964349562000000	0.287584306000000		
0.285105131000000	0.939210677000000	0.218167405000000		
0.295864751000000	0.906535150000000	0.287584306000000		
0.280890534000000	0.983885362000000	0.238000805000000		
0.287534723000000	0.956118651000000	0.257834206000000		
0.284212628000000	0.956366569000000	0.029750101000000		
0.282625956000000	0.928798192000000	0.119000403000000		
0.290856817000000	0.924087709000000	0.069416901000000		
0.295864751000000	0.929293977000000	0.089250302000000		
0.285898467000000	0.940747766000000	0.218167405000000		
0.298294342000000	0.920468114000000	0.476001610000000		
0.280840950000000	0.947491122000000	0.168583904000000		
0.289270145000000	0.933954826000000	0.059500201000000		
0.299087678000000	0.921806868000000	0.287584306000000		
0.300872684000000	0.901576800000000	0.168583904000000		
0.292493073000000	0.939855263000000	0.119000403000000		
0.292641823000000	0.968613743000000	0.049583501000000		
0.285154715000000	0.948333992000000	0.297501006000000		
0.279254278000000	0.959837414000000	0.029750101000000		
0.296757254000000	0.927806472000000	0.347084507000000		
0.297550590000000	0.902717220000000	0.366917908000000		
0.305731868000000	0.923641458000000	0.109083702000000		
0.299137262000000	0.915311479000000	0.128917103000000		
0.300773517000000	0.921608534000000	0.307417707000000		
0.274444678000000	0.971886155000000	0.089250302000000		
0.295963918000000	0.913030589000000	0.148750503000000		
0.298294342000000	0.920468114000000	0.059500201000000		
0.274295928000000	0.963010758000000	0.188417304000000		
0.295914334000000	0.909807711000000	0.426418109000000		
0.294178912000000	0.942929440000000	0.029750101000000		
0.284311795000000	0.978034559000000	0.168583904000000		
0.274444678000000	0.968960778000000	0.218167405000000		
0.305731868000000	0.910055529000000	0.019833400000000		
0.287485139000000	0.952895674000000	0.277667606000000		
0.295914334000000	0.925922349000000	0.119000403000000		
0.300823101000000	0.904799728000000	0.714002415000000		
0.289220562000000	0.952647806000000	0.218167405000000		
0.282675540000000	0.941293184000000	0.257834206000000		
0.284212628000000	0.983488793000000	0.000000000000000		
0.279254278000000	0.962961224000000	0.128917103000000		
0.300872684000000	0.931574818000000	0.009916700000000		
0.279353445000000	0.947491122000000	0.525585111000000		
0.292641823000000	0.968613743000000	0.009916700000000		
0.279849280000000	0.945011947000000	0.178500604000000		
0.296707670000000	0.924286043000000	0.168583904000000		
0.296658087000000	0.921112699000000	0.000000000000000		
0.271122584000000	0.966134568000000	0.297501006000000		
0.280840950000000	0.947491122000000	0.466084910000000		
0.271866336000000	0.964349562000000	0.466084910000000		
0.282675540000000	0.925971882000000	0.604918713000000		
0.290807234000000	0.939954479000000	0.079333602000000		
0.272659672000000	0.957308705000000	0.416501409000000		
0.279353445000000	0.965836968000000	0.247917505000000		
0.284311795000000	0.993355860000000	0.257834206000000		
0.294278079000000	0.912435587000000	0.218167405000000		
0.277618022000000	0.971985371000000	0.099167002000000		
0.290856817000000	0.924087709000000	0.247917505000000		
0.276031350000000	0.959986164000000	0.347084507000000		
0.297550590000000	0.902717220000000	0.009916700000000		
0.285997634000000	0.925228180000000	0.099167002000000		
0.295765584000000	0.939210677000000	0.247917505000000		
0.280940117000000	0.932268987000000	0.029750101000000		
0.271866336000000	0.964349562000000	0.079333602000000		
0.284262212000000	0.965737850000000	0.307417707000000		
0.282576373000000	0.959688663000000	0.188417304000000		
0.295914334000000	0.925922349000000	0.158667203000000		
0.292592240000000	0.917294770000000	0.257834206000000		
0.296757254000000	0.927806472000000	0.089250302000000		
0.290856817000000	0.930335231000000	0.089250302000000		
0.289220562000000	0.959143245000000	0.119000403000000		
0.274444678000000	0.971886155000000	0.208250704000000		
0.295864751000000	0.929293977000000	0.396668009000000		
0.287534723000000	0.956118651000000	0.277667606000000		
0.294030161000000	0.920121079000000	0.148750503000000		
0.287633890000000	0.930831066000000	0.168583904000000		
0.294129328000000	0.955821150000000	0.029750101000000		
0.282725123000000	0.965836968000000	0.138833803000000		
0.281832620000000	0.945656532000000	0.247917505000000		
0.280840950000000	0.947491122000000	0.119000403000000		
0.282675540000000	0.931971536000000	0.386751308000000		
0.287584306000000	0.924831462000000	0.376834608000000		
0.287485139000000	0.952895674000000	0.148750503000000		
0.280791367000000	0.962762840000000	0.297501006000000		
0.287485139000000	1.000000000000000	0.128917103000000		
0.302508940000000	0.907576354000000	0.525585111000000		
0.297501006000000	0.932516954000000	0.267750906000000		
0.302508940000000	0.904353476000000	0.376834608000000		
0.284262212000000	0.943970693000000	0.198334004000000		
0.287633890000000	0.978084093000000	0.138833803000000		
0.303996445000000	0.924236410000000	0.317334407000000		
0.275981767000000	0.957060738000000	0.109083702000000		
0.280940117000000	0.932268987000000	0.089250302000000		
0.281039284000000	0.938516508000000	0.337167807000000		
0.302360190000000	0.914418927000000	0.505751711000000		
0.299087678000000	0.921806868000000	0.416501409000000		
0.302360190000000	0.914418927000000	0.327251107000000		
0.279303862000000	0.977786641000000	0.317334407000000		
0.289220562000000	0.959143245000000	0.138833803000000		
0.300723934000000	0.915063512000000	0.505751711000000		
0.287584306000000	0.984331663000000	0.158667203000000		
0.281039284000000	0.980811235000000	0.000000000000000		
0.300773517000000	0.921608534000000	0.376834608000000		
0.297550590000000	0.902717220000000	0.654502214000000		
0.289220562000000	0.946499452000000	0.327251107000000		
0.290955984000000	0.946400285000000	0.029750101000000		
0.284212628000000	0.962564506000000	0.168583904000000		
0.285898467000000	0.946995337000000	0.287584306000000		
0.274494262000000	0.954333645000000	0.099167002000000		
0.289319729000000	0.937029003000000	0.218167405000000		
0.287485139000000	1.000000000000000	0.009916700000000		
0.277618022000000	0.959936630000000	0.138833803000000		
0.302360190000000	0.921311033000000	0.158667203000000		
0.304145196000000	0.914022259000000	0.188417304000000		
0.295815167000000	0.916947636000000	0.128917103000000		
0.296707670000000	0.924286043000000	0.218167405000000		
0.279353445000000	0.947491122000000	0.476001610000000		
0.287584306000000	0.990727935000000	0.109083702000000		
0.280940117000000	0.932268987000000	0.406584709000000		
0.292542656000000	0.923641458000000	0.138833803000000		
0.294327662000000	0.910353129000000	0.585085313000000		
0.282675540000000	0.968861561000000	0.019833400000000		
0.282526789000000	0.977935392000000	0.188417304000000		
0.277618022000000	0.959936630000000	0.466084910000000		
0.279303862000000	0.941789019000000	0.327251107000000		
0.292493073000000	0.926963553000000	0.446251510000000		
0.272659672000000	0.957308705000000	0.366917908000000		
0.282576373000000	0.974910798000000	0.089250302000000		
0.282675540000000	0.941293184000000	0.099167002000000		
0.279353445000000	0.965836968000000	0.287584306000000		
0.297451423000000	0.942235271000000	0.128917103000000		
0.295021831000000	0.927806472000000	0.208250704000000		
0.294030161000000	0.920121079000000	0.109083702000000		
0.282625956000000	0.928798192000000	0.446251510000000		
0.302508940000000	0.904353476000000	0.485918310000000		
0.274395095000000	0.974662930000000	0.099167002000000		
0.302508940000000	0.931475651000000	0.228084105000000		
0.300823101000000	0.904799728000000	0.614835413000000		
0.304095612000000	0.917294770000000	0.178500604000000		
0.280890534000000	0.983885362000000	0.297501006000000		
0.294228495000000	0.907030935000000	0.079333602000000		
0.282675540000000	0.968861561000000	0.000000000000000		
0.292592240000000	0.917294770000000	0.228084105000000		
0.285997634000000	0.925228180000000	0.714002415000000		
0.284311795000000	0.993355860000000	0.029750101000000		
0.272758839000000	0.968861561000000	0.267750906000000		
0.284262212000000	0.928153557000000	0.307417707000000		
0.295864751000000	0.906535150000000	0.396668009000000		
0.300773517000000	0.928351891000000	0.019833400000000		
0.295021831000000	0.927806472000000	0.406584709000000		
0.282625956000000	0.928798192000000	0.416501409000000		
0.299186845000000	0.905394779000000	0.049583501000000		
0.282625956000000	0.934996129000000	0.317334407000000		
0.300823101000000	0.904799728000000	0.396668009000000		
0.297550590000000	0.916104716000000	0.049583501000000		
0.280890534000000	0.953639476000000	0.119000403000000		
0.282576373000000	0.987058805000000	0.128917103000000		
0.272709256000000	0.966134568000000	0.466084910000000		
0.304095612000000	0.922104369000000	0.208250704000000		
0.290856817000000	0.930335231000000	0.148750503000000		
0.274295928000000	0.963010758000000	0.495835011000000		
0.277717189000000	0.980612901000000	0.128917103000000		
0.286741387000000	0.945309398000000	0.277667606000000		
0.290906401000000	0.908022655000000	0.277667606000000		
0.283419292000000	0.939706512000000	0.228084105000000		
0.279353445000000	0.968911194000000	0.376834608000000		
0.297501006000000	0.919278060000000	0.218167405000000		
0.284262212000000	0.928153557000000	0.436334809000000		
0.300922268000000	0.908220989000000	0.148750503000000		
0.287633890000000	0.930831066000000	0.198334004000000		
0.294278079000000	0.912435587000000	0.376834608000000		
0.289270145000000	0.930831066000000	0.456168210000000		
0.299186845000000	0.935491915000000	0.178500604000000		
0.290856817000000	0.965836968000000	0.009916700000000		
0.295765584000000	0.955523699000000	0.049583501000000		
0.282675540000000	0.925971882000000	0.267750906000000		
0.297401839000000	0.922501037000000	0.049583501000000		
0.272858006000000	0.960085331000000	0.674335615000000		
0.304095612000000	0.910948082000000	0.277667606000000		
0.298343926000000	0.927112303000000	0.208250704000000		
0.274444678000000	0.968960778000000	0.019833400000000		
0.280940117000000	0.932268987000000	0.317334407000000		
0.289220562000000	0.943474858000000	0.158667203000000		
0.294129328000000	0.916798885000000	0.366917908000000		
0.274345511000000	0.957110321000000	0.119000403000000		
0.282576373000000	0.974910798000000	0.178500604000000		
0.279849280000000	0.945011947000000	0.337167807000000		
0.295864751000000	0.929293977000000	0.168583904000000		
0.287584306000000	0.924831462000000	0.485918310000000		
0.289270145000000	0.968663277000000	0.000000000000000		
0.296658087000000	0.930880699000000	0.247917505000000		
0.287534723000000	0.959291995000000	0.238000805000000		
0.290856817000000	0.930335231000000	0.109083702000000		
0.299137262000000	0.918633524000000	0.337167807000000		
0.282675540000000	0.925971882000000	0.525585111000000		
0.287534723000000	0.962415805000000	0.218167405000000		
0.302360190000000	0.921311033000000	0.218167405000000		
0.304095612000000	0.922104369000000	0.198334004000000		
0.274295928000000	0.963010758000000	0.366917908000000		
0.279799697000000	0.944565695000000	0.019833400000000		
0.284212628000000	0.931872319000000	0.386751308000000		
0.277568439000000	0.953837810000000	0.168583904000000		
0.292542656000000	0.923641458000000	0.287584306000000		
0.277618022000000	0.971985371000000	0.069416901000000		
0.285898467000000	0.946995337000000	0.317334407000000		
0.292542656000000	0.913476840000000	0.089250302000000		
0.285948051000000	0.928153557000000	0.099167002000000		
0.295716000000000	0.922897705000000	0.446251510000000		
0.289170978000000	0.975009965000000	0.019833400000000		
0.307417707000000	0.913328090000000	0.158667203000000		
0.285948051000000	0.931376484000000	0.396668009000000		
0.275981767000000	0.962911591000000	0.218167405000000		
0.287584306000000	0.924831462000000	0.416501409000000		
0.287633890000000	0.937128170000000	0.366917908000000		
0.298244759000000	0.923542241000000	0.158667203000000		
0.282675540000000	0.968861561000000	0.287584306000000		
0.300922268000000	0.908220989000000	0.416501409000000		
0.300872684000000	0.931574818000000	0.069416901000000		
0.281832620000000	0.942582405000000	0.059500201000000		
0.298343926000000	0.927112303000000	0.267750906000000		
0.280940117000000	0.956614437000000	0.257834206000000		
0.283468876000000	0.948929043000000	0.337167807000000		
0.292443489000000	0.972084538000000	0.049583501000000		
0.295765584000000	0.952151971000000	0.089250302000000		
0.307516874000000	0.919922695000000	0.029750101000000		
0.297550590000000	0.916104716000000	0.029750101000000		
0.281039284000000	0.938516508000000	0.099167002000000		
0.292493073000000	0.926963553000000	0.109083702000000		
0.304095612000000	0.910948082000000	0.148750503000000		
0.281039284000000	0.950565349000000	0.228084105000000		
0.300723934000000	0.915063512000000	0.426418109000000		
0.299137262000000	0.908815942000000	0.337167807000000		
0.282675540000000	0.925971882000000	0.485918310000000		
0.281832620000000	0.945656532000000	0.039666801000000		
0.281039284000000	0.980811235000000	0.049583501000000		
0.282625956000000	0.929046060000000	0.446251510000000		
0.277667606000000	0.965985817000000	0.000000000000000		
0.285948051000000	0.937425671000000	0.277667606000000		
0.304194779000000	0.907526820000000	0.059500201000000		
0.283419292000000	0.942780689000000	0.218167405000000		
0.297501006000000	0.932516954000000	0.059500201000000		
0.277717189000000	0.969010312000000	0.436334809000000		
0.307516874000000	0.919922695000000	0.079333602000000		
0.276080934000000	0.951061134000000	0.337167807000000		
0.282576373000000	0.987058805000000	0.099167002000000		
0.271866336000000	0.964349562000000	0.396668009000000		
0.305731868000000	0.910055529000000	0.495835011000000		
0.274295928000000	0.963010758000000	0.357001208000000		
0.300723934000000	0.915063512000000	0.515668411000000		
0.292592240000000	0.917294770000000	0.525585111000000		
0.295864751000000	0.906535150000000	0.069416901000000		
0.280840950000000	0.971787087000000	0.307417707000000		
0.292592240000000	0.917294770000000	0.396668009000000		
0.305880618000000	0.913427257000000	0.000000000000000		
0.295021831000000	0.927806472000000	0.446251510000000		
0.279204695000000	0.953639476000000	0.019833400000000		
0.297501006000000	0.908815942000000	0.545418512000000		
0.274345511000000	0.957110321000000	0.218167405000000		
0.292443489000000	0.972084538000000	0.039666801000000		
0.294129328000000	0.971836621000000	0.029750101000000		
0.284163045000000	0.959490280000000	0.009916700000000		
0.280940117000000	0.956614437000000	0.138833803000000		
0.284212628000000	0.962564506000000	0.039666801000000		
0.295765584000000	0.942532772000000	0.267750906000000		
0.276031350000000	0.959986164000000	0.109083702000000		
0.276080934000000	0.977538674000000	0.178500604000000		
0.290856817000000	0.975109132000000	0.069416901000000		
0.281882204000000	0.948978627000000	0.347084507000000		
0.305880618000000	0.917046852000000	0.247917505000000		
0.277618022000000	0.959936630000000	0.198334004000000		
0.282675540000000	0.931971536000000	0.277667606000000		
0.284212628000000	0.931872319000000	0.257834206000000		
0.279204695000000	0.950813167000000	0.575168612000000		
0.300773517000000	0.928351891000000	0.109083702000000		
0.295716000000000	0.922897705000000	0.079333602000000		
0.279204695000000	0.950813167000000	0.753669216000000		
0.281039284000000	0.950565349000000	0.366917908000000		
0.304194779000000	0.907526820000000	0.128917103000000		
0.292592240000000	0.929988146000000	0.019833400000000		
0.275932183000000	0.954036144000000	0.476001610000000		
0.284311795000000	0.968762444000000	0.287584306000000		
0.290906401000000	0.978232843000000	0.059500201000000		
0.283419292000000	0.939706512000000	0.198334004000000		
0.284262212000000	0.934847280000000	0.446251510000000		
0.282675540000000	0.941293184000000	0.089250302000000		
0.295864751000000	0.929293977000000	0.000000000000000		
0.276080934000000	0.951061134000000	0.089250302000000		
0.274494262000000	0.954333645000000	0.436334809000000		
0.294228495000000	0.907030935000000	0.218167405000000		
0.289220562000000	0.924385161000000	0.148750503000000		
0.305682284000000	0.920071446000000	0.089250302000000		
0.300872684000000	0.901576800000000	0.466084910000000		
0.295021831000000	0.924682761000000	0.029750101000000		
0.298343926000000	0.927112303000000	0.039666801000000		
0.290906401000000	0.933508575000000	0.000000000000000		
0.272758839000000	0.968861561000000	0.009916700000000		
0.294129328000000	0.916798885000000	0.019833400000000		
0.300872684000000	0.901576800000000	0.565251912000000		
0.302508940000000	0.907576354000000	0.287584306000000		
0.281039284000000	0.941441935000000	0.029750101000000		
0.289220562000000	0.946499452000000	0.029750101000000		
0.281039284000000	0.965787434000000	0.168583904000000		
0.282625956000000	0.934996129000000	0.069416901000000		
0.292542656000000	0.923641458000000	0.128917103000000		
0.299137262000000	0.908815942000000	0.396668009000000		
0.300773517000000	0.921608534000000	0.386751308000000		
0.282576373000000	0.987058805000000	0.257834206000000		
0.285948051000000	0.931376484000000	0.019833400000000		
0.285948051000000	0.937425671000000	0.347084507000000		
0.277667606000000	0.965985817000000	0.347084507000000		
0.295765584000000	0.955523699000000	0.069416901000000		
0.285898467000000	0.956267402000000	0.188417304000000		
0.282625956000000	0.928798192000000	0.297501006000000		
0.297600173000000	0.912633921000000	0.436334809000000		
0.276080934000000	0.971687870000000	0.287584306000000		
0.284262212000000	0.934847280000000	0.476001610000000		
0.281039284000000	0.959936630000000	0.347084507000000		
0.292542656000000	0.945904450000000	0.099167002000000		
0.290906401000000	0.911195999000000	0.089250302000000		
0.272858006000000	0.960085331000000	0.337167807000000		
0.292542656000000	0.920368947000000	0.247917505000000		
0.275932183000000	0.954036144000000	0.009916700000000		
0.274395095000000	0.960134915000000	0.565251912000000		
0.280890534000000	0.983885362000000	0.366917908000000		
0.289170978000000	0.956069117000000	0.009916700000000		
0.295864751000000	0.906535150000000	0.466084910000000		
0.284311795000000	0.978034559000000	0.089250302000000		
0.279353445000000	0.947491122000000	0.634668814000000		
0.279303862000000	0.956812820000000	0.466084910000000		
0.286691803000000	0.942185687000000	0.307417707000000		
0.282625956000000	0.938070257000000	0.148750503000000		
0.284262212000000	0.934847280000000	0.198334004000000		
0.280940117000000	0.956614437000000	0.089250302000000		
0.284311795000000	0.996231704000000	0.148750503000000		
0.280989701000000	0.935343164000000	0.436334809000000		
0.297501006000000	0.932516954000000	0.039666801000000		
0.284262212000000	0.965737850000000	0.109083702000000		
0.287633890000000	0.930831066000000	0.238000805000000		
0.290906401000000	0.952697390000000	0.228084105000000		
0.282725123000000	0.965836968000000	0.297501006000000		
0.282576373000000	0.974910798000000	0.099167002000000		
0.282625956000000	0.938070257000000	0.109083702000000		
0.296757254000000	0.927806472000000	0.317334407000000		
0.297600173000000	0.912633921000000	0.277667606000000		
0.302409773000000	0.911096832000000	0.049583501000000		
0.285898467000000	0.940747766000000	0.317334407000000		
0.289170978000000	0.962316589000000	0.049583501000000		
0.295914334000000	0.909807711000000	0.505751711000000		
0.290906401000000	0.927211470000000	0.247917505000000		
0.281039284000000	0.965787434000000	0.267750906000000		
0.280940117000000	0.941541102000000	0.238000805000000		
0.300872684000000	0.901576800000000	0.595002013000000		
0.304194779000000	0.907526820000000	0.386751308000000		
0.295021831000000	0.927806472000000	0.456168210000000		
0.298244759000000	0.923542241000000	0.386751308000000		
0.297501006000000	0.919278060000000	0.317334407000000		
0.285997634000000	0.971787087000000	0.019833400000000		
0.274345511000000	0.966134568000000	0.238000805000000		
0.283419292000000	0.945557365000000	0.208250704000000		
0.294129328000000	0.955821150000000	0.099167002000000		
0.294030161000000	0.920121079000000	0.515668411000000		
0.282675540000000	0.980910402000000	0.138833803000000		
0.277766773000000	0.950763633000000	0.624752113000000		
0.296757254000000	0.927806472000000	0.069416901000000		
0.284262212000000	0.971737454000000	0.059500201000000		
0.284212628000000	0.956366569000000	0.257834206000000		
0.280989701000000	0.935343164000000	0.178500604000000		
0.285997634000000	0.925228180000000	0.218167405000000		
0.295765584000000	0.920170613000000	0.327251107000000		
0.279204695000000	0.950813167000000	0.396668009000000		
0.305682284000000	0.920071446000000	0.267750906000000		
0.295914334000000	0.935888583000000	0.218167405000000		
0.282625956000000	0.956515319000000	0.029750101000000		
0.294129328000000	0.916798885000000	0.585085313000000		
0.282576373000000	0.947193621000000	0.109083702000000		
0.280940117000000	0.932268987000000	0.119000403000000		
0.292493073000000	0.939855263000000	0.307417707000000		
0.276031350000000	0.959986164000000	0.446251510000000		
0.285997634000000	0.981108736000000	0.099167002000000		
0.277717189000000	0.969010312000000	0.228084105000000		
0.300823101000000	0.918236856000000	0.079333602000000		
0.284262212000000	0.965737850000000	0.119000403000000		
0.289270145000000	0.949722330000000	0.228084105000000		
0.289270145000000	0.920666398000000	0.823086118000000		
0.279204695000000	0.953639476000000	0.535501812000000		
0.282526789000000	0.977935392000000	0.198334004000000		
0.292592240000000	0.917294770000000	0.436334809000000		
0.286691803000000	0.939111461000000	0.247917505000000		
0.274345511000000	0.957110321000000	0.039666801000000		
0.274395095000000	0.960134915000000	0.436334809000000		
0.282675540000000	0.925971882000000	0.386751308000000		
0.275932183000000	0.954036144000000	0.128917103000000		
0.294228495000000	0.929591478000000	0.396668009000000		
0.286096801000000	0.990232149000000	0.049583501000000		
0.282675540000000	0.925971882000000	0.624752113000000		
0.305880618000000	0.913427257000000	0.307417707000000		
0.284163045000000	0.959490280000000	0.069416901000000		
0.282625956000000	0.928798192000000	0.337167807000000		
0.284262212000000	0.943970693000000	0.138833803000000		
0.283419292000000	0.939706512000000	0.188417304000000		
0.285749717000000	0.953193274000000	0.317334407000000		
0.282625956000000	0.934996129000000	0.436334809000000		
0.302508940000000	0.904353476000000	0.357001208000000		
0.292493073000000	0.926963553000000	0.119000403000000		
0.282625956000000	0.934996129000000	0.396668009000000		
0.295914334000000	0.935888583000000	0.277667606000000		
0.300823101000000	0.934996129000000	0.247917505000000		
0.292344322000000	0.972034905000000	0.000000000000000		
0.297501006000000	0.906287233000000	0.208250704000000		
0.285997634000000	0.971787087000000	0.049583501000000		
0.300823101000000	0.904799728000000	0.099167002000000		
0.295815167000000	0.916947636000000	0.456168210000000		
0.292592240000000	0.929988146000000	0.128917103000000		
0.282675540000000	0.925971882000000	0.366917908000000		
0.274345511000000	0.966134568000000	0.059500201000000		
0.302409773000000	0.911096832000000	0.188417304000000		
0.282625956000000	0.929046060000000	0.297501006000000		
0.300823101000000	0.918236856000000	0.178500604000000		
0.287534723000000	0.962415805000000	0.198334004000000		
0.289220562000000	0.952647806000000	0.119000403000000		
0.274345511000000	0.966134568000000	0.525585111000000		
0.305880618000000	0.913427257000000	0.109083702000000		
0.277618022000000	0.963010758000000	0.069416901000000		
0.299186845000000	0.905394779000000	0.128917103000000		
0.280890534000000	0.953639476000000	0.376834608000000		
0.297550590000000	0.916104716000000	0.406584709000000		
0.290955984000000	0.921013532000000	0.386751308000000		
0.280890534000000	0.977786641000000	0.049583501000000		
0.295864751000000	0.906535150000000	0.505751711000000		
0.277618022000000	0.959936630000000	0.327251107000000		
0.304095612000000	0.922104369000000	0.228084105000000		
0.285997634000000	0.925228180000000	0.545418512000000		
0.277618022000000	0.971985371000000	0.317334407000000		
0.275981767000000	0.957060738000000	0.039666801000000		
0.272709256000000	0.966134568000000	0.148750503000000		
0.295815167000000	0.916947636000000	0.228084105000000		
0.277766773000000	0.950763633000000	0.476001610000000		
0.299186845000000	0.952052754000000	0.029750101000000		
0.297501006000000	0.925723965000000	0.228084105000000		
0.291005568000000	0.914567677000000	0.604918713000000		
0.292493073000000	0.942929440000000	0.138833803000000		
0.277568439000000	0.953837810000000	0.386751308000000		
0.299186845000000	0.935491915000000	0.119000403000000		
