0.174164 0.218384 0.370728
0.380157 0.769318 0.825653
0.0898132 0.442627 0.313385
0.292938 0.718445 0.0783691
0.016571 0.149658 0.649109
0.543823 0.0625 0.58316
0.257629 0.67868 0.472229
0.593109 0.36554 0.905914
0.154053 0.230743 0.131653
0.370697 0.256653 0.128113
0.540649 0.694733 0.0739746
0.347748 0.337006 0.678558
0.579254 0.566162 0.249481
0.260315 0.296631 0.0640259
0.206665 0.796539 0.718323
0.334656 0.874664 0.537506
0.513947 0.717865 0.658844
0.700714 0.0169373 0.502563
0.751862 0.726776 0.466187
0.50412 0.978058 0.32193
0.454742 0.815125 0.162872
0.657349 0.303955 0.801056
0.521637 0.916351 0.0474548
0.837494 0.743042 0.581116
0.111359 0.0332642 0.510254
0.862762 0.290955 0.62265
0.0210876 0.839325 0.367767
0.590881 0.905701 0.518066
0.956543 0.535522 0.0396118
0.599884 0.0552979 0.162018
0.883514 0.815002 0.532715
0.76712 0.309967 0.958801
0.605621 0.471436 0.638458
0.0737 0.786316 0.881378
0.966248 0.101105 0.108643
0.160095 0.517914 0.940338
0.745148 0.125671 0.985199
0.964233 0.892609 0.599365
0.541687 0.621613 0.838104
0.815094 0.281219 0.012146
0.829071 0.810974 0.543091
0.255096 0.0174866 0.277832
0.0531921 0.173248 0.529602
0.248871 0.0927734 0.843689
0.261292 0.598877 0.275146
0.931061 0.431488 0.349274
0.4039 0.454132 0.33963
0.273193 0.537323 0.232758
0.283112 0.482361 0.548096
0.638641 0.770508 0.928955
0.247772 0.758514 0.165985
0.7659 0.659332 0.107758
0.28476 0.0636292 0.194885
0.903259 0.588409 0.755981
0.251068 0.681213 0.37146
0.232605 0.0674438 0.617798
0.759308 0.361115 0.204041
0.996735 0.692841 0.206116
0.793427 0.675568 0.556061
0.503448 0.993927 0.904755
0.61795 0.829346 0.00460815
0.0490723 0.733063 0.221039
0.0771179 0.808746 0.596985
0.408173 0.027832 0.650299
0.0854797 0.185577 0.815643
0.497894 0.00830078 0.497009
0.113281 0.558044 0.674835
0.773773 0.741089 0.992462
0.894379 0.136627 0.0290222
0.469879 0.96579 0.777374
0.553833 0.99176 0.504913
0.587646 0.925446 0.904785
0.996765 0.600006 0.0939026
0.187195 0.356812 0.592163
0.837738 0.178894 0.492493
0.671082 0.659882 0.632263
0.51236 0.512878 0.872284
0.993347 0.519806 0.288666
0.620667 0.170959 0.030365
0.705841 0.926544 0.277649
0.131775 0.822571 0.933563
0.0917664 0.759216 0.696899
0.956543 0.399628 0.658081
0.95816 0.994659 0.131927
0.693573 0.752716 0.757813
0.591217 0.288635 0.273468
0.199677 0.834595 0.300964
0.543884 0.290253 0.842651
0.153687 0.938202 0.31543
0.951294 0.707306 0.0678711
0.0964661 0.744415 0.308075
0.578094 0.971466 0.013855
0.666626 0.523376 0.993103
0.422394 0.478455 0.354492
0.0352478 0.40509 0.507904
0.0534668 0.927246 0.331421
0.996277 0.816589 0.33371
0.573395 0.378448 0.274841
0.923279 0.599335 0
0.790894 0.418976 0.807739
