-0.35075798630714417 -0.41687235236167908 -0.83856201171875
0.71419811248779297 -0.18843579292297363 0.67410165071487427
0.42867341637611389 0.027884410694241524 0.90302908420562744
-0.62013190984725952 -0.34540200233459473 -0.70436769723892212
-0.9326632022857666 0.29634016752243042 0.2057226151227951
-0.40354812145233154 -0.89961040019989014 -0.16688345372676849
0.03419160470366478 -0.48057779669761658 -0.87628531455993652
0.23089799284934998 0.93538933992385864 0.26782989501953125
0.85671085119247437 0.3628881573677063 0.36654967069625854
-0.97818666696548462 -0.19104444980621338 0.081565350294113159
0.47440874576568604 -0.5743638277053833 0.66711509227752686
-0.056493125855922699 -0.86927080154418945 0.49109753966331482
0.010806520469486713 0.013613199815154076 0.99984896183013916
-0.71397566795349121 0.69716060161590576 -0.064852356910705566
-0.27015089988708496 0.89724856615066528 -0.34923270344734192
0.75348001718521118 -0.64979678392410278 0.10015973448753357
-0.16720794141292572 0.51168584823608398 -0.84274494647979736
-0.95293289422988892 -0.016512550413608551 0.3027312159538269
0.69286113977432251 0.2687678337097168 0.66910934448242188
0.7616615891456604 -0.64587092399597168 -0.052176054567098618
0.92837363481521606 0.31181377172470093 0.20222419500350952
0.47622725367546082 -0.82185006141662598 0.31268206238746643
-0.20359978079795837 -0.50635278224945068 0.83794629573822021
0.93060797452926636 0.36560913920402527 -0.017285611480474472
-0.49206924438476563 -0.57476919889450073 -0.65384113788604736
0.23404335975646973 0.1553766131401062 0.95973008871078491
-0.65989810228347778 0.61365216970443726 -0.4335499107837677
0.4939064085483551 -0.71372514963150024 -0.49664154648780823
-0.49325522780418396 -0.80213826894760132 -0.33656129240989685
0.11709120124578476 -0.2466987818479538 -0.96199238300323486
-0.11803566664457321 0.16113057732582092 0.97984921932220459
-0.70011669397354126 0.51104563474655151 -0.49866718053817749
-0.062452834099531174 0.83341878652572632 -0.54910176992416382
0.81961542367935181 -0.57244569063186646 0.023163642734289169
-0.91654831171035767 0.14896728098392487 -0.37114411592483521
-0.86025965213775635 -0.48420202732086182 0.15969254076480865
-0.90642267465591431 -0.070597186684608459 0.41643005609512329
-0.80410152673721313 -0.14624878764152527 0.57622218132019043
0.27692857384681702 0.94953805208206177 0.1472686231136322
0.4138990044593811 0.87840986251831055 0.23892201483249664
0.80276262760162354 0.58548694849014282 0.11303627490997314
0.07320818305015564 0.54400688409805298 -0.83588099479675293
-0.77511709928512573 -0.61544054746627808 -0.14292106032371521
0.88176971673965454 0.17292548716068268 -0.43883812427520752
0.40121713280677795 -0.56469219923019409 -0.72121250629425049
0.37540614604949951 -0.021287409588694572 0.92661595344543457
0.91951727867126465 -0.39196351170539856 -0.029198687523603439
-0.14655432105064392 -0.3981950581073761 -0.9055178165435791
-0.67616212368011475 -0.22916138172149658 -0.70020699501037598
-0.061372220516204834 0.92836838960647583 0.36655905842781067
