0.047991 0.474739 0.362822 0.750607 0.595533 0.286234
0.049741 0.469082 0.363823 0.879935 -0.275879 0.386788
0.050121 0.471113 0.363720 0.899976 0.210876 0.381542
0.051786 0.470559 0.359098 0.967066 0.092159 0.237253
0.051309 0.467173 0.354381 0.841624 -0.501841 0.199563
0.050214 0.473817 0.358196 0.805921 0.562787 0.183747
0.049808 0.466459 0.359893 0.944492 -0.253234 0.209302
0.048794 0.476565 0.352749 0.751578 0.656988 0.059135
0.050069 0.474927 0.345193 0.800789 0.597920 -0.035049
0.050575 0.464057 0.348980 0.887229 -0.415410 0.200648
0.050374 0.461532 0.346560 0.918672 0.355592 0.172035
0.051088 0.460844 0.348703 0.385745 0.919899 0.070624
0.051828 0.461157 0.343421 0.605122 0.746635 0.276341
0.051145 0.462103 0.343688 0.916088 -0.134805 0.377638
0.052117 0.464933 0.346963 0.824110 -0.506005 0.254561
0.051633 0.472743 0.352345 0.884876 0.463430 0.047188
0.050748 0.472640 0.333941 0.858528 0.506331 -0.080991
0.051096 0.469274 0.322291 0.908088 0.401123 -0.120317
0.050260 0.467198 0.311264 0.916686 0.360640 -0.172122
0.051646 0.463354 0.313473 0.968873 0.186121 -0.163228
0.049475 0.462265 0.302180 0.964364 0.166560 -0.205570
0.048244 0.465906 0.300124 0.920793 0.326719 -0.213059
0.048188 0.470684 0.310181 0.776465 0.602727 -0.183909
0.048978 0.472860 0.321502 0.770777 0.618427 -0.153138
0.047722 0.477348 0.341660 0.720368 0.691517 -0.053616
0.031256 0.485792 0.353769 0.131836 0.991008 -0.022864
0.030289 0.485827 0.344206 0.118972 0.992561 -0.025848
0.028215 0.485734 0.334818 0.073918 0.995684 -0.056115
0.027942 0.486062 0.350427 0.080235 0.996497 -0.023566
0.027313 0.486284 0.355904 0.090207 0.995347 -0.033865
0.028535 0.486370 0.361275 0.120356 0.992726 0.003174
0.030584 0.485866 0.365494 0.202417 0.968808 0.142965
0.032605 0.485766 0.358507 0.185236 0.982651 -0.009212
0.037795 0.484475 0.351720 0.336686 0.941573 -0.009144
0.037685 0.484343 0.359864 0.396076 0.916075 0.062695
0.035588 0.485082 0.355265 0.254663 0.967028 0.001903
0.034632 0.485253 0.363034 0.296594 0.949838 0.099197
0.032051 0.484296 0.323402 0.281429 0.949064 -0.141686
0.033091 0.485520 0.350211 0.166614 0.985907 -0.015082
0.034107 0.484821 0.335865 0.281175 0.956892 -0.072788
0.035876 0.484816 0.345220 0.284853 0.957339 -0.048582
0.044767 0.479951 0.340526 0.597519 0.798491 -0.073369
0.044145 0.480862 0.347349 0.603930 0.796047 -0.039724
0.044677 0.480390 0.355053 0.636811 0.766699 0.081514
0.042345 0.481596 0.359116 0.597953 0.789167 0.140242
0.044195 0.479089 0.362222 0.684489 0.691341 0.231350
0.046440 0.479031 0.349578 0.678682 0.734392 -0.007675
0.045328 0.476702 0.322683 0.607770 0.774361 -0.176013
0.044423 0.474014 0.309753 0.568275 0.795975 -0.208534
0.030696 0.479356 0.301629 0.417744 0.873787 -0.248970
0.039022 0.479379 0.316660 0.482556 0.849092 -0.214902
0.039642 0.481475 0.327736 0.469096 0.871088 -0.145446
0.042120 0.482427 0.352468 0.534799 0.844940 0.008118
0.039798 0.482765 0.362961 0.543424 0.820213 0.178720
0.040088 0.483374 0.356350 0.463982 0.884084 0.055818
0.040621 0.483073 0.347089 0.460015 0.886141 -0.056036
0.040272 0.482498 0.338423 0.449733 0.888527 -0.090882
0.027038 0.483679 0.313438 0.160975 0.972640 -0.167504
0.022637 0.485489 0.332010 0.011618 0.997610 -0.068107
0.016591 0.485956 0.334822 0.057561 0.996595 -0.059029
0.023783 0.486075 0.343824 0.037770 0.998544 -0.038511
0.022283 0.486468 0.351940 0.058272 0.997509 -0.039745
0.017879 0.485029 0.323865 0.062880 0.994651 -0.081953
0.022073 0.484155 0.316112 0.032870 0.994001 -0.104316
0.021652 0.482786 0.304983 0.139707 0.979858 -0.142688
0.026795 0.481444 0.303263 0.294534 0.930214 -0.218976
0.014906 0.483690 0.304997 0.132670 0.986792 -0.092954
0.010538 0.484281 0.305409 0.126658 0.988440 -0.083329
0.010333 0.484867 0.312038 0.122533 0.989210 -0.080311
0.016209 0.484307 0.313866 0.099618 0.990901 -0.090509
0.009977 0.486456 0.337446 0.058908 0.997107 -0.048033
0.003737 0.486362 0.323905 0.056899 0.997392 -0.044411
0.010129 0.485783 0.323883 0.091638 0.993836 -0.062389
0.004998 0.485704 0.314376 0.086828 0.993640 -0.071703
0.000179 0.485295 0.305232 0.000004 0.997090 -0.076231
0.000179 0.486480 0.323946 0.000000 0.999139 -0.041480
0.000180 0.486731 0.331473 0.000001 0.999467 -0.032660
0.000180 0.487088 0.341799 -0.000000 0.998715 -0.050689
0.000180 0.487733 0.350944 -0.000007 0.997017 -0.077177
0.009608 0.486948 0.347299 0.066596 0.996209 -0.055969
0.015725 0.486871 0.352917 0.061522 0.996859 -0.049872
0.004818 0.486630 0.334228 0.053354 0.997761 -0.040336
0.016321 0.486471 0.344972 0.051958 0.997572 -0.046368
0.022122 0.486734 0.358127 0.067061 0.996929 -0.040430
0.023551 0.486823 0.363153 0.094046 0.995567 0.001523
0.016099 0.487178 0.359278 0.074373 0.995669 -0.055780
0.017516 0.487400 0.364561 0.102630 0.993950 -0.039133
0.000180 0.488555 0.360141 -0.000003 0.996149 -0.087672
0.006177 0.488161 0.360296 0.090997 0.992225 -0.084902
0.011265 0.488121 0.365769 0.110080 0.991397 -0.070815
0.004571 0.487750 0.353206 0.066071 0.995045 -0.074293
0.011228 0.487691 0.360990 0.093473 0.992671 -0.076595
0.005732 0.488788 0.366251 0.086718 0.993717 -0.070755
0.006028 0.488978 0.371492 0.089422 0.995215 0.039369
0.000180 0.489232 0.367729 0.000000 0.999005 -0.044589
0.000180 0.489256 0.372831 0.000000 0.994930 0.100569
0.010906 0.488425 0.370227 0.121852 0.992547 -0.001432
0.016879 0.487644 0.369787 0.148061 0.988042 0.043011
0.018130 0.486761 0.373915 0.232222 0.934271 0.270575
0.024872 0.486453 0.368262 0.189308 0.967868 0.165510
0.010615 0.485232 0.381952 0.197614 0.844641 0.497524
0.016301 0.485395 0.378493 0.293100 0.846759 0.443950
0.022374 0.485429 0.373969 0.296272 0.866372 0.402023
0.011591 0.486874 0.378161 0.189763 0.916465 0.352253
0.000180 0.488502 0.376905 -0.000001 0.958526 0.285006
0.005985 0.488441 0.375832 0.097041 0.970030 0.222765
0.005736 0.487236 0.379555 0.098238 0.914082 0.393451
0.000180 0.487099 0.380559 -0.000002 0.891835 0.452361
0.020851 0.482946 0.379163 0.368447 0.753876 0.543983
0.026612 0.482770 0.375720 0.325362 0.770243 0.548511
0.030315 0.482427 0.374058 0.323234 0.776813 0.540445
0.028361 0.484619 0.371612 0.283961 0.863765 0.416265
0.028842 0.478107 0.379927 0.378616 0.656066 0.652861
0.031959 0.468353 0.381367 0.511457 -0.150492 0.846028
0.032569 0.464594 0.381659 0.476369 0.278659 0.833920
0.032303 0.470508 0.382300 0.533601 -0.216212 0.817632
0.038310 0.460566 0.380144 0.464826 0.646727 0.604715
0.035986 0.473528 0.379888 0.502373 0.357416 0.787322
0.036836 0.470695 0.379300 0.562251 -0.222816 0.796383
0.036365 0.468489 0.378537 0.563705 -0.091630 0.820878
0.036724 0.483735 0.366420 0.423810 0.866369 0.264176
0.032632 0.484449 0.368876 0.305621 0.888032 0.343505
0.038287 0.481169 0.370194 0.496856 0.750369 0.435981
0.033950 0.481916 0.372561 0.366973 0.772617 0.518068
0.032822 0.479188 0.376638 0.368341 0.687123 0.626249
0.039742 0.446990 0.382712 0.563535 -0.205678 0.800078
0.039905 0.446138 0.382698 0.679883 0.299315 0.669455
0.042711 0.450595 0.382650 0.618729 -0.175426 0.765767
0.044267 0.447008 0.379555 0.614145 -0.459279 0.641786
0.043271 0.445589 0.379240 0.682017 -0.313887 0.660551
0.043255 0.444728 0.379311 0.784397 0.249137 0.568024
0.043360 0.442997 0.380428 0.770685 0.338144 0.540096
0.044422 0.433144 0.382541 0.789713 0.141026 0.597047
0.045942 0.438452 0.378852 0.779724 0.256710 0.571078
0.045525 0.445013 0.376137 0.707538 -0.462150 0.534610
0.046381 0.442534 0.375847 0.784938 0.439691 0.436513
0.045616 0.444010 0.375507 0.865166 0.050928 0.498893
0.046469 0.458890 0.375028 0.495753 0.809234 0.315229
0.046872 0.446061 0.375678 0.696610 -0.508222 0.506404
0.046104 0.449373 0.378956 0.747272 -0.231899 0.622741
0.044768 0.457914 0.379596 0.619925 0.554302 0.555376
0.045561 0.454128 0.379974 0.749267 0.075463 0.657955
0.043408 0.459066 0.378536 0.400963 0.846863 0.349360
0.042106 0.460273 0.377172 0.552099 0.639650 0.534822
0.041015 0.464016 0.376052 0.648411 0.285391 0.705773
0.039533 0.459317 0.381678 0.321745 0.875411 0.360744
0.044226 0.463671 0.372721 0.766543 0.253847 0.589892
0.045132 0.460038 0.373808 0.643759 0.624561 0.442151
0.046674 0.467291 0.368198 0.852478 -0.108628 0.511352
0.046738 0.463361 0.368914 0.867652 0.201891 0.454335
0.045323 0.475621 0.367420 0.729647 0.583698 0.356248
0.043882 0.467729 0.372146 0.757922 -0.066380 0.648959
0.042308 0.476460 0.371720 0.658492 0.582456 0.476586
0.041582 0.480204 0.366533 0.637723 0.708600 0.301986
0.038459 0.477196 0.375110 0.496846 0.625079 0.602013
0.040428 0.468157 0.375534 0.645366 -0.054068 0.761957
0.040897 0.472811 0.376511 0.651230 0.220649 0.726094
0.040938 0.470461 0.376036 0.636025 -0.223824 0.738495
0.044575 0.472242 0.372695 0.767739 0.214773 0.603696
0.019377 0.473675 0.388929 0.411906 0.410929 0.813309
0.018995 0.464069 0.389766 0.901603 -0.187170 0.389973
0.018709 0.480707 0.383624 0.397076 0.683299 0.612726
0.017908 0.478090 0.386757 0.379868 0.582201 0.718848
0.016145 0.464791 0.394684 0.618128 0.355820 0.700935
0.017157 0.471232 0.391187 0.482132 0.357948 0.799638
0.017918 0.466640 0.392315 0.736380 0.104536 0.668444
0.019275 0.465583 0.390201 0.846279 -0.241883 0.474663
0.017304 0.462989 0.394305 0.477814 0.844035 0.243515
0.016921 0.463890 0.394348 0.717639 0.319308 0.618899
0.016708 0.462851 0.395187 0.697650 0.346115 0.627287
0.016438 0.462865 0.395449 0.677774 0.414472 0.607318
0.018006 0.462935 0.392125 0.717482 0.632882 0.290998
0.018097 0.462834 0.394026 0.133723 0.987567 0.082644
0.018205 0.463810 0.391591 0.905439 -0.064297 0.419579
0.018979 0.463242 0.389594 0.802661 0.287618 0.522505
0.019548 0.462810 0.389887 0.203761 0.930626 0.304001
0.018651 0.462769 0.392537 0.102234 0.994607 0.017454
0.019536 0.462815 0.393334 0.174086 0.961657 0.211918
0.019890 0.462215 0.393923 0.431258 0.394582 0.811370
0.018018 0.461860 0.394787 0.311493 -0.026900 0.949868
0.018725 0.460194 0.394248 0.576108 0.157666 0.802023
0.019494 0.459825 0.394022 0.179989 -0.271702 0.945400
0.019428 0.459403 0.394010 0.749629 0.597898 0.283855
0.017468 0.461603 0.394928 0.783227 0.473379 0.403073
0.017640 0.461238 0.395177 0.768058 0.541195 0.342338
0.017337 0.461124 0.395860 0.744359 0.578782 0.333076
0.016612 0.461002 0.399179 0.767278 0.622271 0.155125
0.016830 0.462660 0.395145 0.396266 0.234418 0.887706
0.016926 0.462809 0.395115 0.283112 0.360163 0.888893
0.017458 0.461656 0.394894 0.606203 0.182688 0.774043
0.017515 0.461694 0.394880 0.254927 -0.132448 0.957846
0.017803 0.462752 0.394779 0.326450 0.744697 0.582115
0.014291 0.472958 0.391891 0.509526 0.471676 0.719656
0.016115 0.468067 0.393245 0.547758 0.341038 0.763973
0.015310 0.467483 0.394002 0.642683 0.360380 0.676081
0.014568 0.468163 0.394665 0.845488 0.360154 0.394258
0.015706 0.462202 0.399195 0.880584 0.453623 0.137107
0.016081 0.462728 0.395967 0.782199 0.479018 0.398381
0.015485 0.464615 0.395420 0.846797 0.354066 0.396954
0.015911 0.464303 0.395135 0.658426 0.376462 0.651730
0.012785 0.471715 0.394389 0.682508 0.568462 0.459384
0.013775 0.467491 0.398852 0.870417 0.451809 0.195556
0.009656 0.472302 0.399479 0.589978 0.766299 0.254385
0.012369 0.468132 0.404745 0.786014 0.601308 0.143560
0.000181 0.473665 0.405001 -0.000002 0.971119 0.238595
0.006658 0.473534 0.401418 0.382597 0.891973 0.240839
0.003447 0.474937 0.399498 0.140962 0.947854 0.285835
0.009991 0.474261 0.394329 0.519482 0.733978 0.437509
0.004738 0.480596 0.389232 0.115737 0.732968 0.670345
0.000181 0.481274 0.388782 0.000003 0.764966 0.644070
0.003833 0.483115 0.386382 0.058878 0.785798 0.615674
0.000181 0.484996 0.383978 0.000002 0.823242 0.567690
0.005279 0.485401 0.383056 0.086126 0.839319 0.536774
0.009597 0.482477 0.386110 0.197086 0.736253 0.647370
0.012187 0.478468 0.388873 0.286727 0.605139 0.742694
0.015684 0.476374 0.389036 0.354408 0.522705 0.775355
0.006774 0.475535 0.395298 0.348219 0.860212 0.372530
0.010903 0.476162 0.391285 0.391760 0.648548 0.652618
0.007345 0.477361 0.391796 0.295057 0.765357 0.571987
0.008306 0.479436 0.389303 0.238734 0.672682 0.700360
0.000181 0.478898 0.391536 0.000001 0.772238 0.635333
0.004114 0.478436 0.391670 0.142389 0.775967 0.614492
0.000181 0.477126 0.394039 0.000000 0.866740 0.498761
0.003683 0.476702 0.394486 0.135780 0.889724 0.435839
0.000181 0.475551 0.397830 0.000000 0.946057 0.323999
0.004512 0.467821 0.429673 0.166780 0.958456 0.231401
0.008024 0.468699 0.421254 0.388327 0.903042 0.183624
0.007212 0.471253 0.410428 0.395442 0.898709 0.189596
0.003546 0.472878 0.407643 0.157233 0.961658 0.224704
0.010038 0.470022 0.407671 0.629333 0.761316 0.156005
0.010837 0.467551 0.418067 0.643799 0.754778 0.125829
0.009028 0.465737 0.433529 0.353951 0.912623 0.204542
0.011815 0.464824 0.429946 0.635262 0.765183 0.104578
0.010921 0.456787 0.457904 0.087198 0.864400 0.495186
0.007276 0.460731 0.450724 0.116814 0.911948 0.393325
0.011506 0.462127 0.444699 0.299503 0.920576 0.250674
0.005139 0.464614 0.441177 0.149444 0.942386 0.299292
0.000182 0.462593 0.447815 0.000019 0.925302 0.379230
0.000182 0.458724 0.455584 0.000012 0.876482 0.481434
0.000182 0.455495 0.460623 0.000013 0.807343 0.590083
0.000183 0.453071 0.463377 0.000028 0.748119 0.663564
0.001543 0.436824 0.481934 0.113620 0.116353 0.986688
0.005426 0.439132 0.480162 0.212024 0.517511 0.828992
0.000183 0.443985 0.475434 -0.010148 0.810809 0.585223
0.006243 0.444553 0.473854 0.103560 0.798958 0.592402
0.006044 0.435328 0.480530 0.321478 -0.206156 0.924203
0.004570 0.433760 0.480565 0.230029 -0.274306 0.933725
0.000183 0.432754 0.480943 -0.023453 -0.081359 0.996409
0.000183 0.429980 0.481850 0.000024 0.360091 0.932917
0.007441 0.430327 0.480169 0.294989 0.355431 0.886933
0.010270 0.434356 0.478198 0.429397 -0.219295 0.876087
0.011570 0.436075 0.478077 0.463399 -0.177161 0.868260
0.011647 0.433431 0.477375 0.425415 0.084640 0.901032
0.011244 0.449056 0.467495 0.064861 0.754431 0.653167
0.011236 0.446351 0.470686 0.096976 0.768331 0.632664
0.008541 0.441716 0.476913 0.193880 0.706939 0.680183
0.010666 0.439895 0.477842 0.301983 0.508982 0.806067
0.007325 0.437237 0.480213 0.356397 0.127123 0.925646
0.012300 0.443176 0.474274 0.181069 0.713246 0.677122
0.016413 0.444223 0.472151 0.193301 0.688745 0.698759
0.012092 0.451472 0.464725 0.055569 0.741240 0.668937
0.012526 0.453808 0.462115 0.064132 0.780841 0.621430
0.015417 0.441146 0.475171 0.323883 0.510450 0.796581
0.015274 0.435370 0.475635 0.525790 -0.180665 0.831207
0.012974 0.431076 0.477597 0.395038 0.330870 0.857013
0.012688 0.438147 0.477666 0.443442 0.143895 0.884677
0.016479 0.437265 0.475368 0.562835 -0.143622 0.813996
0.017818 0.432254 0.474773 0.466077 0.295719 0.833860
0.016530 0.434539 0.474743 0.502887 0.099174 0.858644
0.019498 0.442893 0.472256 0.356735 0.519027 0.776757
0.017610 0.454799 0.428953 0.616188 0.780080 0.108573
0.016980 0.455159 0.438952 0.939292 0.286509 -0.188793
0.019374 0.452180 0.439314 0.543685 0.835320 0.081525
0.017934 0.453321 0.439782 0.800009 0.594721 -0.079329
0.018507 0.446494 0.469325 0.174426 0.700112 0.692401
0.019494 0.457338 0.451213 0.585530 0.810337 0.022538
0.017002 0.457754 0.453861 0.260714 0.910126 0.322023
0.016803 0.457666 0.440125 0.916827 0.355093 -0.182588
0.016203 0.456069 0.429373 0.824811 0.562851 0.053720
0.015482 0.458004 0.426572 0.930783 0.364754 0.024441
0.016022 0.458209 0.418583 0.819846 0.564690 0.094750
0.017163 0.458802 0.407411 0.728045 0.675580 0.116368
0.017402 0.456812 0.418214 0.676666 0.726977 0.116734
0.015848 0.460327 0.407677 0.838233 0.536578 0.097205
0.015442 0.459640 0.416650 0.909304 0.410886 0.065865
0.014206 0.464427 0.406951 0.910442 0.405591 0.081192
0.013182 0.465117 0.416369 0.847615 0.525216 0.075479
0.013763 0.462634 0.429120 0.843795 0.536225 0.021754
0.014230 0.461478 0.441571 0.604234 0.794358 0.062426
0.014707 0.461413 0.417869 0.932436 0.357730 0.050906
0.014816 0.459936 0.428915 0.946669 0.321023 -0.027606
0.015218 0.460466 0.438992 0.803793 0.593337 -0.043223
0.019939 0.458311 0.395166 0.744051 0.623474 0.240142
0.020454 0.460376 0.393893 0.298266 -0.078509 0.951248
0.020819 0.462764 0.390900 0.080925 0.992083 0.096036
0.020203 0.468871 0.390087 0.635428 -0.043458 0.770936
0.020434 0.458183 0.394104 0.742940 0.605677 0.284948
0.020093 0.456089 0.406742 0.678326 0.728061 0.099001
0.020499 0.454455 0.417526 0.613049 0.784123 0.096550
0.020890 0.452809 0.428279 0.535936 0.838601 0.097576
0.021889 0.451360 0.463622 0.180743 0.734254 0.654373
0.021848 0.453033 0.449738 0.881029 0.286089 -0.376750
0.022308 0.450691 0.449691 0.887522 0.262724 -0.378524
0.022842 0.450561 0.438657 0.512003 0.853093 0.100423
0.021886 0.457212 0.392684 0.555291 0.180788 0.811768
0.022501 0.456448 0.392694 0.708767 0.589698 0.387177
0.022567 0.454804 0.397826 0.730604 0.674661 0.105117
0.021485 0.453913 0.460343 0.228208 0.845880 0.482087
0.023400 0.455072 0.393121 0.714214 0.580019 0.391760
0.024774 0.453297 0.458464 0.594279 0.790535 0.147943
0.023914 0.452648 0.405981 0.701220 0.710490 0.059118
0.024546 0.451364 0.416730 0.660174 0.749149 0.054282
0.026520 0.450381 0.462723 0.559714 0.656922 0.505147
0.026168 0.450725 0.397118 0.756174 0.649118 0.082749
0.026653 0.450958 0.393200 0.733787 0.608467 0.302199
0.025105 0.452455 0.456051 0.833842 0.491197 -0.251858
0.026560 0.459031 0.391478 0.444933 0.267824 0.854579
0.026297 0.456840 0.391727 0.309761 -0.142143 0.940130
0.026312 0.452634 0.391796 0.678196 0.565903 0.468833
0.030142 0.449714 0.390054 0.645910 0.555062 0.524124
0.025461 0.454284 0.390919 0.486961 0.071504 0.870492
0.025723 0.455247 0.391287 0.182496 -0.368769 0.911430
0.023278 0.458281 0.392824 0.249006 -0.183723 0.950916
0.022941 0.460313 0.392924 0.413432 0.173685 0.893816
0.023009 0.462298 0.391794 0.400295 0.789659 0.464975
0.030049 0.460328 0.386897 0.330992 0.892363 0.306811
0.029927 0.452906 0.389363 0.243318 -0.388729 0.888643
0.029474 0.451629 0.388801 0.442257 -0.051091 0.895432
0.029884 0.450909 0.388893 0.631942 0.533064 0.562577
0.031165 0.454981 0.389685 0.399686 -0.089761 0.912247
0.036107 0.456484 0.386922 0.515766 0.198949 0.833310
0.030895 0.458315 0.389428 0.465229 0.373150 0.802696
0.031407 0.459701 0.387964 0.355916 0.829075 0.431229
0.035662 0.458984 0.386057 0.400787 0.725790 0.559106
0.040662 0.458416 0.382997 0.493749 0.632555 0.596730
0.041474 0.455140 0.383572 0.612330 0.141625 0.777813
0.037647 0.452414 0.386190 0.483391 -0.140491 0.864058
0.035340 0.450540 0.386567 0.339131 -0.389646 0.856251
0.034816 0.459645 0.384516 0.290542 0.892238 0.345682
0.028830 0.461529 0.385148 0.407990 0.668165 0.622174
0.028119 0.465275 0.383761 0.443847 0.185155 0.876765
0.030489 0.473143 0.383210 0.484806 0.358065 0.797968
0.027781 0.470249 0.385383 0.536361 -0.178431 0.824911
0.026393 0.472982 0.385734 0.467562 0.386379 0.795045
0.024765 0.477473 0.383016 0.416075 0.631192 0.654582
0.024167 0.466794 0.385621 0.498120 -0.180973 0.848012
0.021161 0.467136 0.388001 0.664971 -0.396956 0.632645
0.021994 0.475802 0.386279 0.416235 0.536079 0.734417
0.023519 0.471122 0.387961 0.492155 0.137583 0.859566
0.023750 0.468723 0.387045 0.540433 -0.406586 0.736627
0.027423 0.460528 0.390037 0.445389 0.734515 0.511973
0.026133 0.461581 0.388584 0.381520 0.894170 0.234312
0.023294 0.462587 0.389129 0.288004 0.936880 0.198269
0.021462 0.463191 0.388510 0.226564 0.885065 0.406607
0.020415 0.464091 0.387859 0.478517 0.486925 0.730702
0.022717 0.463903 0.386811 0.401954 0.588867 0.701191
0.023190 0.462999 0.387700 0.359130 0.844003 0.398353
0.025091 0.463971 0.385558 0.414812 0.356879 0.837000
0.025108 0.462365 0.386928 0.401603 0.801587 0.442915
0.034993 0.448296 0.385974 0.611632 0.410350 0.676401
0.034900 0.446957 0.387468 0.635413 0.515741 0.574684
0.034696 0.449129 0.386002 0.445159 -0.168391 0.879476
0.030143 0.447457 0.392107 0.705934 0.584167 0.400509
0.027015 0.447879 0.437963 0.660216 0.748136 0.066387
0.027760 0.448459 0.405257 0.753143 0.657225 0.028828
0.028580 0.447273 0.415871 0.740588 0.671658 0.020103
0.029780 0.446416 0.396381 0.767279 0.631733 0.110441
0.034625 0.439310 0.435983 0.810276 0.584080 0.047993
0.033204 0.441587 0.425415 0.786180 0.617826 0.014576
0.032282 0.442811 0.414963 0.782744 0.622321 0.005326
0.031070 0.443668 0.436940 0.761596 0.646224 0.048639
0.031360 0.444035 0.404511 0.781280 0.623803 0.021726
0.032908 0.442639 0.395664 0.775430 0.608610 0.168231
0.033855 0.444303 0.390601 0.691469 0.530649 0.490186
0.034357 0.440134 0.403866 0.816263 0.576973 0.028572
0.038066 0.432468 0.402813 0.965558 0.260023 0.009236
0.038157 0.433829 0.394024 0.939827 0.272505 0.206073
0.038313 0.441490 0.387622 0.737492 0.379744 0.558480
0.039933 0.444599 0.383966 0.695993 0.418565 0.583435
0.040601 0.448441 0.383145 0.470580 -0.414168 0.779114
0.042251 0.439314 0.383575 0.775665 0.243211 0.582402
0.039954 0.435798 0.388059 0.843195 0.236851 0.482621
0.041012 0.430906 0.387762 0.876648 0.112415 0.467816
0.038813 0.431121 0.413092 0.969425 0.242310 -0.038736
0.038363 0.431491 0.447013 0.912655 0.391404 0.117742
0.039130 0.431540 0.434761 0.938985 0.343077 0.024625
0.038258 0.433763 0.423992 0.919163 0.393766 -0.009333
0.035262 0.438864 0.414240 0.833154 0.553026 -0.004206
0.036167 0.437594 0.424614 0.845247 0.534339 0.006208
0.036603 0.436393 0.403329 0.900889 0.433340 0.024816
0.037220 0.435450 0.435375 0.872658 0.486491 0.042366
0.037430 0.435078 0.413661 0.908482 0.417460 -0.019687
0.030728 0.441772 0.456646 0.815869 0.556703 0.156330
0.030551 0.443211 0.448133 0.775045 0.624904 0.093810
0.028646 0.444241 0.456670 0.738763 0.664729 0.111193
0.027486 0.445462 0.457127 0.844828 0.530080 -0.072676
0.033737 0.439144 0.447628 0.814490 0.564996 0.131854
0.036341 0.435289 0.447328 0.847333 0.512708 0.138410
0.035363 0.432406 0.457880 0.810929 0.464338 0.356068
0.037151 0.430140 0.456387 0.867118 0.410646 0.281916
0.031583 0.432317 0.464686 0.792040 0.253871 0.555178
0.033164 0.436216 0.458675 0.853704 0.404241 0.328297
0.031129 0.438092 0.461925 0.787553 0.390420 0.476794
0.029653 0.441347 0.461325 0.799222 0.451231 0.397032
0.028368 0.446253 0.461901 0.990385 0.124960 0.059360
0.028766 0.442804 0.461586 0.896120 0.346928 0.276785
0.027307 0.441507 0.464963 0.844779 0.059688 0.531776
0.028301 0.437807 0.465137 0.656552 0.340343 0.673132
0.029202 0.432849 0.466909 0.619763 0.347549 0.703636
0.025167 0.430310 0.470997 0.538211 0.336327 0.772795
0.024946 0.435705 0.468899 0.599556 0.279329 0.750005
0.027283 0.443427 0.464998 0.864569 0.023921 0.501945
0.027211 0.446356 0.464719 0.804764 0.228855 0.547704
0.027205 0.446478 0.448503 0.639120 0.763307 0.094275
0.026717 0.449082 0.457341 0.911826 0.198051 -0.359652
0.027130 0.446730 0.457463 0.924670 0.227656 -0.305219
0.025322 0.447948 0.465648 0.451831 0.539753 0.710292
0.022804 0.445274 0.468999 0.395600 0.527995 0.751480
0.024274 0.443570 0.468735 0.668173 0.203872 0.715528
0.022792 0.449372 0.449470 0.772778 0.614692 -0.158012
0.024261 0.448356 0.448925 0.571826 0.817400 0.069798
0.024707 0.438279 0.468308 0.674560 0.144020 0.724035
0.024608 0.441614 0.468472 0.757768 -0.027944 0.651925
0.021722 0.434550 0.471632 0.540791 0.263846 0.798705
0.020846 0.436133 0.471762 0.586852 0.121859 0.800472
0.020946 0.439596 0.472235 0.669621 -0.051190 0.740936
0.015607 0.418525 0.481592 0.470963 0.296299 0.830904
0.016408 0.426111 0.478071 0.444266 0.343471 0.827439
0.021158 0.421666 0.477113 0.512140 0.292590 0.807529
0.021002 0.429523 0.474015 0.501200 0.320863 0.803645
0.025349 0.409225 0.478425 0.433755 0.372901 0.820245
0.028015 0.404223 0.479027 0.606704 0.243642 0.756669
0.017811 0.405067 0.484214 0.491440 0.318458 0.810599
0.019818 0.402367 0.484400 0.420786 0.418772 0.804717
0.028256 0.408610 0.477227 0.509327 0.332665 0.793675
0.030202 0.417565 0.472009 0.513963 0.357052 0.779972
0.032817 0.416536 0.470728 0.611707 0.318116 0.724304
0.032324 0.402445 0.461247 0.502422 -0.849698 -0.159956
0.031742 0.427051 0.466452 0.711051 0.287068 0.641871
0.029552 0.428987 0.468374 0.673049 0.270863 0.688214
0.029426 0.425486 0.469640 0.698025 0.209713 0.684676
0.028254 0.419005 0.472641 0.579920 0.276871 0.766182
0.033444 0.425906 0.465594 0.640529 0.396028 0.657939
0.033111 0.411524 0.472398 0.704054 0.212522 0.677601
0.033901 0.408595 0.472146 0.816512 0.044111 0.575640
0.033101 0.402620 0.470444 0.808856 -0.563656 0.167465
0.037747 0.410949 0.464558 0.937033 -0.146808 0.316887
0.037526 0.415090 0.465377 0.890214 0.089338 0.446696
0.036596 0.418826 0.465768 0.823450 0.224435 0.521113
0.035767 0.424461 0.464228 0.762786 0.357152 0.539073
0.038421 0.425758 0.457764 0.910534 0.295239 0.289417
0.039806 0.421296 0.457131 0.960207 0.158379 0.230039
0.039960 0.415461 0.458385 0.977733 -0.060476 0.200948
0.039193 0.410876 0.457662 0.925049 -0.369898 0.086368
0.034760 0.404240 0.462428 0.716540 -0.696223 -0.042933
0.034326 0.404811 0.455986 0.578583 -0.801123 -0.153113
0.036886 0.407164 0.463526 0.884923 -0.447080 0.130504
0.036966 0.407254 0.456973 0.773731 -0.631629 -0.048840
0.037828 0.408605 0.453628 0.797313 -0.603549 0.004576
0.035110 0.405888 0.453540 0.598027 -0.799141 -0.061132
0.035088 0.404801 0.450572 0.737208 -0.378665 0.559587
0.032972 0.404453 0.451833 0.138951 -0.555852 0.819586
0.034435 0.402597 0.450220 0.700042 -0.382400 0.603086
0.035370 0.405963 0.451765 0.654274 -0.712731 0.252864
0.038420 0.409213 0.450077 0.852843 -0.518683 0.060219
0.040028 0.412547 0.453202 0.949393 -0.311069 0.043460
0.040788 0.417562 0.451367 0.998181 -0.027837 0.053482
0.039887 0.427429 0.446504 0.962703 0.254758 0.091108
0.040690 0.423114 0.444750 0.994972 0.094546 0.033035
0.040304 0.413290 0.447340 0.969586 -0.244713 -0.004400
0.039282 0.410376 0.444567 0.925642 -0.378252 -0.010581
0.036065 0.403352 0.447157 0.892876 -0.389637 0.225733
0.035195 0.403737 0.449940 0.799650 -0.321673 0.507036
0.036793 0.405293 0.447145 0.914437 -0.326901 0.238621
0.037276 0.407081 0.448007 0.866582 -0.462146 0.188300
0.015523 0.406790 0.446214 -0.274551 -0.267372 0.923653
0.015516 0.406996 0.446291 -0.286419 -0.349855 0.891945
0.015509 0.406585 0.446173 -0.253651 -0.039043 0.966508
0.015500 0.407147 0.446595 -0.060605 -0.956536 -0.285246
0.026729 0.405190 0.450415 -0.181040 -0.968388 0.171606
0.027467 0.405051 0.451024 -0.011725 -0.956793 -0.290535
0.027543 0.404963 0.450438 -0.301935 -0.601210 0.739852
0.032906 0.404754 0.452282 0.171123 -0.945756 0.276158
0.032831 0.404667 0.452920 0.256449 -0.945225 -0.201947
0.032610 0.402871 0.451374 0.147451 -0.129613 0.980540
0.026765 0.403994 0.453622 0.024494 -0.927860 -0.372125
0.026442 0.402829 0.452098 0.124334 0.893022 0.432496
0.018438 0.404708 0.449331 0.052362 0.912377 0.405989
0.027074 0.403553 0.450436 0.057576 0.812924 0.579517
0.027246 0.403823 0.450283 -0.137720 0.457140 0.878668
0.027383 0.404110 0.450200 -0.240907 0.131392 0.961613
0.028430 0.404371 0.450576 -0.284363 -0.199765 0.937673
0.027363 0.392161 0.453450 0.391853 -0.857294 -0.333913
0.026925 0.394856 0.446713 0.326966 -0.865157 -0.380260
0.024900 0.401479 0.455358 0.135236 0.888273 0.438955
0.017781 0.392497 0.445501 0.292593 -0.821438 -0.489518
0.021449 0.398926 0.465881 0.021769 -0.929505 -0.368167
0.022386 0.398194 0.463077 0.184999 0.863899 0.468460
0.027784 0.392146 0.464511 0.880131 -0.010248 0.474619
0.029064 0.398740 0.458433 0.514559 0.678769 0.523929
0.027432 0.389728 0.462822 0.719409 -0.691911 0.060911
0.025949 0.389088 0.460579 0.463591 -0.863135 -0.200205
0.022122 0.387590 0.460158 0.400016 -0.883204 -0.244823
0.019225 0.385219 0.465384 0.356803 -0.918734 -0.169175
0.018125 0.385850 0.459458 0.494760 -0.855296 -0.153884
0.019213 0.387750 0.455272 0.506787 -0.803194 -0.313123
0.022324 0.391783 0.449965 0.347128 -0.835406 -0.426144
0.023328 0.389962 0.454933 0.388400 -0.854832 -0.344104
0.030388 0.395327 0.449498 0.539900 -0.792309 -0.284175
0.032675 0.398802 0.444690 0.647918 -0.716781 -0.257735
0.033541 0.401147 0.450561 0.763163 -0.068058 0.642612
0.032281 0.402301 0.451477 0.227168 0.153057 0.961753
0.035759 0.402131 0.444921 0.870826 -0.491286 0.017286
0.035014 0.401818 0.448296 0.855325 -0.383979 0.347821
0.034335 0.400417 0.448587 0.905787 -0.315268 0.283118
0.034031 0.399534 0.446682 0.811045 -0.582784 -0.050687
0.031712 0.395911 0.451885 0.831142 -0.554502 -0.041596
0.032284 0.399671 0.452824 0.821478 0.250412 0.512317
0.030717 0.401214 0.453548 0.380845 0.772502 0.508131
0.031935 0.401741 0.451777 0.380184 0.515199 0.768134
0.030145 0.401774 0.460050 0.219441 -0.931786 -0.289171
0.030174 0.396859 0.458411 0.847687 0.261349 0.461654
0.030488 0.394956 0.458128 0.946965 -0.082094 0.310672
0.029876 0.392656 0.458991 0.907500 -0.389710 0.156747
0.029440 0.392419 0.456019 0.629313 -0.756106 -0.179636
0.022060 0.385941 0.467220 0.456216 -0.883917 -0.102752
0.023311 0.386718 0.468777 0.659591 -0.741798 0.121145
0.023616 0.387705 0.470157 0.812168 -0.400542 0.424204
0.023435 0.389337 0.470894 0.790502 0.007732 0.612411
0.031139 0.400580 0.469291 0.601825 -0.797581 -0.040879
0.028867 0.399428 0.467998 0.387454 -0.906434 -0.168097
0.026657 0.399021 0.466673 0.170708 -0.943288 -0.284721
0.023800 0.396411 0.474749 0.265838 -0.942968 -0.200353
0.025908 0.396920 0.476154 0.442441 -0.892622 -0.086445
0.027706 0.398075 0.477363 0.682253 -0.715953 0.148129
0.028625 0.399883 0.478309 0.820517 -0.370447 0.435340
0.028666 0.402099 0.478914 0.758899 0.003555 0.651199
0.021784 0.400461 0.484433 0.449285 0.402197 0.797734
0.022348 0.398044 0.485328 0.591471 0.235421 0.771193
0.023705 0.397322 0.484209 0.749473 -0.123582 0.650398
0.022545 0.395425 0.484712 0.739525 -0.518751 0.428953
0.021660 0.394325 0.483807 0.551323 -0.827561 0.105764
0.018603 0.386225 0.476524 0.741284 -0.054407 0.668982
0.019664 0.385257 0.474847 0.766297 -0.451948 0.456653
0.018860 0.384059 0.474506 0.628939 -0.749166 0.207811
0.021126 0.393249 0.471258 0.421717 0.648526 0.633695
0.021558 0.396269 0.473295 0.138541 -0.948262 -0.285667
0.018197 0.393676 0.481072 0.224280 -0.947892 -0.226272
0.020090 0.393772 0.482541 0.322608 -0.936126 -0.139972
0.018299 0.394344 0.489411 0.688730 -0.080117 0.720577
0.016470 0.395061 0.490579 0.514892 0.331508 0.790562
0.015681 0.396645 0.490125 0.423573 0.467649 0.775815
0.015977 0.393569 0.479538 0.142148 -0.943681 -0.298764
0.016358 0.395482 0.469900 0.158230 0.857105 0.490238
0.017905 0.383425 0.472663 0.392499 -0.917060 -0.070329
0.018106 0.388713 0.476431 0.620243 0.284183 0.731121
0.015631 0.390657 0.477065 0.394359 0.619477 0.678771
0.016050 0.391598 0.489300 0.523402 -0.839538 0.145694
0.016775 0.392556 0.490165 0.678129 -0.552802 0.484305
0.010670 0.381330 0.482921 0.623198 -0.446444 0.642115
0.009598 0.379963 0.482258 0.482979 -0.842322 0.239216
0.008511 0.384240 0.484586 0.467304 0.177059 0.866185
0.005993 0.379315 0.485499 0.497266 -0.551900 0.669427
0.008945 0.379693 0.480016 0.313237 -0.945299 -0.091062
0.013732 0.384449 0.481057 0.636381 0.009802 0.771312
0.014309 0.381876 0.478945 0.552779 -0.794937 0.250021
0.015346 0.383344 0.479377 0.708107 -0.394758 0.585449
0.012762 0.386345 0.481376 0.542958 0.264425 0.797042
0.011154 0.388496 0.481376 0.389837 0.548782 0.739503
0.007649 0.389111 0.488406 0.203669 -0.915613 -0.346658
0.007429 0.386623 0.484364 0.324571 0.463015 0.824785
0.005672 0.387841 0.498189 0.483315 -0.305636 0.820362
0.005735 0.386719 0.493884 0.276381 -0.927021 -0.253467
0.009858 0.388551 0.492463 0.374961 -0.915712 -0.144488
0.010249 0.388804 0.494232 0.581142 -0.758672 0.294433
0.012705 0.392075 0.494059 0.614638 -0.037263 0.787929
0.014813 0.391187 0.488075 0.341073 -0.930706 -0.132123
0.013240 0.391043 0.486638 0.252316 -0.936787 -0.242417
0.011447 0.391200 0.484610 0.157469 -0.932498 -0.325040
0.011883 0.393845 0.477935 0.029019 -0.920900 -0.388717
0.014587 0.410428 0.484651 0.485095 0.259239 0.835152
0.012981 0.403095 0.487965 0.441399 0.350012 0.826231
0.014672 0.398954 0.489118 0.418831 0.459716 0.783098
0.009782 0.397502 0.492537 0.328279 0.493655 0.805319
0.008281 0.402104 0.490584 0.300800 0.392520 0.869165
0.009731 0.409542 0.487455 0.367290 0.287728 0.884483
0.005570 0.424459 0.483512 0.233749 0.390831 0.890288
0.008624 0.392017 0.481888 0.078198 -0.907348 -0.413043
0.005872 0.390075 0.485361 0.157703 -0.893534 -0.420389
0.011223 0.390199 0.494660 0.640204 -0.471538 0.606457
0.011006 0.392880 0.494897 0.448742 0.338616 0.827025
0.007112 0.389806 0.497741 0.476559 -0.011924 0.879062
0.005541 0.390700 0.498249 0.296889 0.327187 0.897109
0.005253 0.392737 0.497256 0.203880 0.511345 0.834841
0.005514 0.389477 0.482541 0.111597 0.734167 0.669735
0.004285 0.392532 0.480266 0.069960 -0.874017 -0.480832
0.005202 0.416762 0.486719 0.212911 0.323989 0.921792
0.004876 0.408655 0.489292 0.186043 0.308587 0.932825
0.003580 0.401112 0.492235 0.093840 0.427599 0.899085
0.004893 0.396050 0.494989 0.154425 0.536968 0.829348
0.000945 0.392347 0.498114 0.025802 0.563602 0.825643
0.000184 0.406171 0.490497 -0.024200 0.320323 0.946999
0.000183 0.414306 0.488156 0.000044 0.306066 0.952010
0.000183 0.422187 0.485275 0.000047 0.374897 0.927067
0.000183 0.390514 0.481068 0.000000 0.806898 0.590691
0.000183 0.391331 0.481784 -0.009438 -0.863333 -0.504546
0.002676 0.388977 0.486237 0.116049 -0.889521 -0.441911
0.000184 0.390016 0.499527 0.005140 0.410841 0.911692
0.000716 0.388217 0.500000 0.077960 0.057313 0.995308
0.000184 0.384862 0.498438 -0.029848 -0.946245 0.322070
0.000509 0.384798 0.496441 0.035978 -0.984891 -0.169396
0.000183 0.381643 0.487666 -0.000004 0.150367 0.988630
0.000183 0.379554 0.487691 -0.001131 -0.133986 0.990983
0.000644 0.377889 0.487016 0.068229 -0.638876 0.766278
0.005373 0.386029 0.496542 0.378820 -0.924522 0.041886
0.004252 0.386050 0.498329 0.399440 -0.625298 0.670411
0.003797 0.387004 0.491236 0.192821 -0.919062 -0.343723
0.004259 0.382134 0.486831 0.301782 0.113020 0.946654
0.004641 0.380217 0.486676 0.388699 -0.175609 0.904475
0.004887 0.378050 0.484605 0.354567 -0.904117 0.238441
0.004457 0.377937 0.482244 0.237147 -0.966905 -0.094110
0.003610 0.378490 0.478245 0.218761 -0.965401 -0.141934
0.000183 0.384627 0.486940 -0.000009 0.482652 0.875812
0.003675 0.384736 0.486407 0.188124 0.410277 0.892346
0.000183 0.387397 0.484793 0.000001 0.693751 0.720215
0.002583 0.387827 0.484395 0.045545 0.697245 0.715385
0.003043 0.378861 0.473475 0.262038 -0.964534 0.031774
0.002756 0.378027 0.469158 0.264787 -0.944898 0.192499
0.002005 0.376903 0.465055 0.190516 -0.974412 0.119269
0.000182 0.376631 0.461924 -0.024643 -0.998967 -0.038182
0.003103 0.377198 0.461276 0.268133 -0.961278 -0.063631
0.004243 0.377733 0.465142 0.386227 -0.913317 0.129152
0.006049 0.378327 0.463062 0.435647 -0.897830 0.064127
0.005356 0.378984 0.468139 0.439873 -0.881553 0.171397
0.003688 0.381676 0.448003 0.245639 -0.808808 -0.534314
0.004785 0.381213 0.449968 0.295953 -0.884442 -0.360797
0.004910 0.378601 0.456737 0.294615 -0.918245 -0.264628
0.004083 0.377832 0.458747 0.285298 -0.942021 -0.176642
0.000182 0.377181 0.458564 -0.000016 -0.978548 -0.206018
0.000687 0.378661 0.454205 0.047844 -0.929223 -0.366408
0.000182 0.381437 0.447509 -0.000840 -0.760587 -0.649236
0.000182 0.383060 0.446170 0.000005 -0.538493 -0.842630
0.000182 0.387946 0.444167 -0.000000 -0.494411 -0.869228
0.000183 0.396668 0.472498 -0.000001 -0.904500 -0.426473
0.000183 0.394742 0.476256 -0.000002 -0.873140 -0.487469
0.000183 0.393207 0.476758 0.000005 0.858229 0.513267
0.000182 0.396697 0.469984 0.000013 0.911040 0.412318
0.000182 0.406531 0.448934 -0.000021 -0.924432 -0.381346
0.000182 0.408226 0.444800 -0.000025 -0.928928 -0.370262
0.000182 0.408609 0.443806 -0.000011 -0.958587 -0.284800
0.001396 0.407058 0.444818 0.004414 0.912856 0.408257
0.000183 0.403851 0.455423 -0.000008 -0.923797 -0.382882
0.000183 0.401175 0.461907 -0.000001 -0.923054 -0.384670
0.000183 0.398642 0.467995 -0.000001 -0.918527 -0.395359
0.005840 0.394829 0.476064 -0.000042 -0.895911 -0.444233
0.004153 0.393957 0.475525 0.053768 0.878053 0.475533
0.005694 0.395773 0.471508 0.076313 0.900678 0.427734
0.002400 0.383167 0.446180 0.113473 -0.552606 -0.825682
0.003353 0.386026 0.445020 0.123376 -0.398711 -0.908740
0.008872 0.390312 0.443858 0.262976 -0.720323 -0.641855
0.011741 0.386856 0.447797 0.464065 -0.566038 -0.681355
0.008127 0.396664 0.471957 -0.025815 -0.912295 -0.408719
0.011621 0.393002 0.475671 0.184887 0.831408 0.524001
0.011144 0.399057 0.466266 -0.026045 -0.919087 -0.393192
0.007987 0.398168 0.465810 0.063236 0.911329 0.406794
0.011032 0.400828 0.459295 0.051633 0.916740 0.396133
0.011680 0.407860 0.445045 -0.216105 -0.825011 0.522164
0.015472 0.406388 0.446183 -0.196358 0.297781 0.934221
0.015418 0.406209 0.446263 -0.068854 0.736923 0.672461
0.015476 0.406435 0.448374 -0.021689 -0.925375 -0.378431
0.014761 0.404411 0.453294 -0.021203 -0.922880 -0.384503
0.013355 0.401733 0.459782 -0.023321 -0.921801 -0.386961
0.015250 0.385746 0.453069 0.556049 -0.742917 -0.372671
0.013244 0.403445 0.452826 0.046055 0.917567 0.394904
0.013320 0.385916 0.450155 0.517021 -0.710264 -0.477718
0.014455 0.389843 0.447171 0.389993 -0.674754 -0.626588
0.010715 0.382965 0.452323 0.455888 -0.794389 -0.401389
0.009207 0.383197 0.450309 0.434629 -0.804778 -0.404265
0.008630 0.383838 0.448429 0.438301 -0.736716 -0.514919
0.006183 0.384206 0.446422 0.313971 -0.542183 -0.779397
0.013544 0.382688 0.459806 0.545215 -0.838216 -0.011638
0.015081 0.384217 0.456437 0.570166 -0.794192 -0.210167
0.015266 0.383950 0.463645 0.426038 -0.903418 -0.048239
0.015285 0.383118 0.469967 0.288871 -0.946168 -0.146016
0.013434 0.381448 0.476822 0.326217 -0.942271 -0.075553
0.011310 0.381461 0.473586 0.271505 -0.951800 -0.142697
0.007460 0.379976 0.476399 0.280157 -0.948882 -0.145380
0.006128 0.380051 0.472092 0.377095 -0.925934 0.021098
0.006871 0.380069 0.454531 0.344033 -0.872796 -0.346222
0.007838 0.379942 0.466154 0.494457 -0.857508 0.142100
0.009213 0.381242 0.469742 0.385228 -0.922821 -0.001196
0.010156 0.380691 0.457333 0.474612 -0.862084 -0.177636
0.011109 0.381690 0.463978 0.499438 -0.861485 0.091677
0.014573 0.398314 0.430004 0.415648 -0.891237 -0.181477
0.012624 0.393319 0.441301 0.236473 -0.839742 -0.488788
0.012529 0.396388 0.434368 0.419980 -0.887033 -0.191807
0.012063 0.396476 0.431795 0.513974 -0.851039 -0.107534
0.012122 0.397031 0.402195 0.662779 -0.746774 0.055242
0.012731 0.398064 0.420431 0.591441 -0.805747 -0.031133
0.013061 0.397613 0.428460 0.551308 -0.828270 -0.100143
0.014147 0.398168 0.392489 0.631862 -0.768704 0.099219
0.019911 0.401802 0.405400 0.384835 -0.922633 0.025489
0.016877 0.399950 0.392516 0.474330 -0.875593 0.091371
0.014551 0.399358 0.412484 0.535784 -0.844248 0.013430
0.014331 0.398841 0.402454 0.568650 -0.821735 0.037272
0.018413 0.399843 0.429942 0.277311 -0.927540 -0.250537
0.022760 0.399268 0.434056 0.228494 -0.908251 -0.350529
0.028187 0.398843 0.438271 0.349696 -0.860824 -0.369723
0.031120 0.398575 0.442086 0.517924 -0.786484 -0.336450
0.035051 0.402106 0.442017 0.757353 -0.599691 -0.258431
0.033683 0.402408 0.438764 0.701401 -0.631407 -0.330698
0.032566 0.403075 0.434933 0.649540 -0.692762 -0.313334
0.034269 0.407821 0.428274 0.763904 -0.613381 -0.200535
0.034737 0.412779 0.398907 0.847226 -0.528339 0.055372
0.034492 0.411696 0.408940 0.824650 -0.563030 -0.054320
0.034642 0.410497 0.419323 0.804380 -0.583227 -0.113220
0.036022 0.407921 0.434849 0.811557 -0.519338 -0.267699
0.030215 0.405372 0.420475 0.558940 -0.817864 -0.136691
0.025212 0.403609 0.415978 0.327908 -0.942566 -0.063608
0.029333 0.405958 0.407638 0.591039 -0.805601 -0.040995
0.030263 0.407056 0.396517 0.645596 -0.760258 0.072213
0.024965 0.403559 0.394450 0.436662 -0.896836 0.070798
0.023681 0.403225 0.404676 0.373464 -0.927593 0.009785
0.020771 0.402372 0.414496 0.341774 -0.939698 -0.012591
0.021062 0.402036 0.422987 0.269104 -0.955452 -0.121224
0.024677 0.402245 0.425876 0.263399 -0.942081 -0.207617
0.010783 0.394663 0.438066 0.321359 -0.890403 -0.322352
0.010872 0.395568 0.434146 0.446502 -0.885637 -0.127607
0.009503 0.395417 0.428182 0.451378 -0.890298 -0.060227
0.010028 0.395084 0.402510 0.647844 -0.755761 0.095517
0.011900 0.395878 0.393067 0.759194 -0.639905 0.118934
0.010273 0.396038 0.410927 0.583983 -0.810711 0.041364
0.010745 0.396549 0.419483 0.563726 -0.825818 -0.015383
0.011507 0.396600 0.427621 0.542076 -0.837024 -0.074460
0.000182 0.408633 0.443590 0.000027 -0.778163 0.628063
0.000182 0.408496 0.443577 0.000044 0.110909 0.993831
0.000182 0.408291 0.443491 0.000018 -0.326606 0.945161
0.000182 0.408086 0.443441 0.000080 -0.153603 0.988133
0.007951 0.394605 0.410999 0.485983 -0.871299 0.068257
0.008501 0.395212 0.419491 0.459764 -0.888040 0.001266
0.008552 0.394278 0.435912 0.376850 -0.909924 -0.173269
0.000183 0.407885 0.443434 -0.000103 0.126636 0.991949
0.000183 0.407701 0.443497 0.000560 0.589925 0.807458
0.000455 0.391894 0.437406 0.027222 -0.971328 -0.236179
0.004102 0.390996 0.441307 0.174818 -0.856159 -0.486241
0.000182 0.390142 0.442059 0.000636 -0.804460 -0.594007
0.003780 0.388806 0.443701 0.128361 -0.607801 -0.783646
0.007875 0.392547 0.440375 0.282752 -0.861494 -0.421757
0.005016 0.392830 0.436674 0.269746 -0.941342 -0.202764
0.005786 0.394003 0.419559 0.370346 -0.928738 0.016992
0.006762 0.394245 0.428720 0.361111 -0.930937 -0.054365
0.007692 0.393421 0.402962 0.539565 -0.829279 0.145485
0.005424 0.393419 0.411216 0.395726 -0.913956 0.089919
0.009751 0.393318 0.394185 0.728022 -0.663857 0.171107
0.007417 0.391348 0.395051 0.595284 -0.770899 0.226609
0.004920 0.387604 0.389177 0.502754 -0.814086 0.290693
0.002552 0.388797 0.396202 0.341740 -0.893938 0.289982
0.004993 0.389928 0.395633 0.490662 -0.831195 0.261469
0.002669 0.391101 0.403792 0.310403 -0.926652 0.212053
0.005208 0.392157 0.403344 0.440872 -0.878931 0.181967
0.000180 0.315427 0.369942 0.000042 0.057855 0.998325
0.005086 0.295372 0.370495 0.131763 0.013665 0.991187
0.000180 0.294958 0.370835 -0.000005 0.012947 0.999916
0.000180 0.274527 0.370473 0.000177 -0.061989 0.998077
0.006938 0.268186 0.369450 0.162338 -0.088703 0.982740
0.011969 0.296560 0.369044 0.260136 0.015566 0.965446
0.006897 0.322508 0.368698 0.167021 0.060779 0.984078
0.006622 0.365312 0.367832 0.201838 -0.064147 0.977316
0.014075 0.360694 0.364702 0.473036 -0.020535 0.880804
0.014080 0.323111 0.366900 0.352815 0.068120 0.933210
0.009112 0.239328 0.364368 0.219293 -0.241904 0.945195
0.012792 0.178302 0.333679 0.361948 -0.573571 0.734854
0.005409 0.177062 0.335130 0.159455 -0.591082 0.790694
0.007261 0.208382 0.353745 0.166928 -0.421284 0.891434
0.008791 0.346112 0.366887 0.259684 0.031279 0.965187
0.000180 0.346346 0.367704 0.000038 0.015590 0.999878
0.000180 0.369546 0.368634 -0.007212 -0.081606 0.996639
0.004812 0.378039 0.369317 0.106655 -0.134698 0.985130
0.006068 0.382721 0.369920 0.135321 -0.674778 0.725509
0.000468 0.382643 0.370235 -0.006591 -0.668777 0.743434
0.003172 0.386301 0.388288 0.314219 -0.908518 0.275430
0.000180 0.383994 0.377611 0.002163 -0.988237 0.152916
0.005494 0.383496 0.372585 0.138803 -0.957831 0.251582
0.001219 0.383212 0.372138 0.013317 -0.973492 0.228332
0.011988 0.389487 0.377868 0.764520 -0.551388 0.333886
0.009816 0.387178 0.378416 0.642816 -0.700310 0.310408
0.013663 0.396272 0.385135 0.736077 -0.641351 0.216470
0.009615 0.390484 0.386387 0.735394 -0.627422 0.256003
0.006852 0.385969 0.381180 0.493341 -0.823852 0.279074
0.009582 0.384557 0.372420 0.432926 -0.828219 0.355848
0.010641 0.383460 0.369421 0.315512 -0.651508 0.689920
0.013459 0.385103 0.369356 0.399337 -0.632883 0.663317
0.012749 0.377973 0.367280 0.378342 -0.173622 0.909238
0.022923 0.374813 0.360147 0.610475 -0.202156 0.765803
0.024322 0.379300 0.360505 0.480704 -0.472449 0.738726
0.018952 0.386622 0.368796 0.178994 -0.650136 0.738434
0.015411 0.388468 0.371189 0.386703 -0.646322 0.657821
0.019809 0.400008 0.384345 0.346738 -0.888000 0.302041
0.016096 0.397803 0.383315 0.539900 -0.790434 0.289347
0.019391 0.394694 0.376205 0.160690 -0.752185 0.639059
0.014253 0.389508 0.373553 0.647740 -0.592835 0.478518
0.027700 0.387578 0.368476 0.134891 -0.706639 0.694598
0.033268 0.396887 0.376001 0.268251 -0.662572 0.699314
0.024992 0.396000 0.376936 0.151895 -0.728735 0.667737
0.031849 0.405883 0.386432 0.521661 -0.729055 0.443112
0.027434 0.380243 0.360389 0.195013 -0.768127 0.609878
0.033341 0.381004 0.360131 0.212706 -0.795037 0.568043
0.030215 0.372981 0.352744 0.760385 -0.206210 0.615866
0.034076 0.376380 0.351341 0.349984 -0.870685 0.345570
0.031997 0.375517 0.351309 0.638563 -0.559132 0.528780
0.035603 0.361197 0.339774 0.921908 0.001323 0.387406
0.035252 0.371012 0.342908 0.911334 -0.145063 0.385263
0.030655 0.347130 0.349748 0.810037 0.062475 0.583041
0.030380 0.364692 0.350312 0.806605 -0.094657 0.583463
0.015688 0.342480 0.364377 0.472133 0.067488 0.878940
0.022069 0.270708 0.364680 0.485048 -0.070221 0.871664
0.028510 0.297581 0.360106 0.687431 0.040931 0.725095
0.029573 0.324579 0.355320 0.752863 0.102786 0.650101
0.030709 0.266500 0.358193 0.717316 -0.068111 0.693411
0.016809 0.240576 0.362280 0.377965 -0.231485 0.896414
0.014757 0.209819 0.352051 0.375301 -0.401687 0.835342
0.014203 0.269214 0.367738 0.310167 -0.085195 0.946857
0.015643 0.149747 0.303157 0.458915 -0.673078 0.579968
0.022870 0.212583 0.348773 0.558327 -0.370201 0.742443
0.030893 0.185208 0.322646 0.737767 -0.420112 0.528400
0.031291 0.217666 0.343053 0.751376 -0.302055 0.586683
0.032909 0.241925 0.351178 0.770971 -0.189862 0.607911
0.037732 0.328155 0.299742 0.953287 0.038677 -0.299581
0.037973 0.347537 0.300951 0.966821 -0.016919 -0.254893
0.039493 0.366287 0.306182 0.991801 -0.026329 -0.125050
0.039818 0.386980 0.300980 0.984595 -0.059680 -0.164350
0.039906 0.350178 0.310833 0.993955 0.002847 -0.109752
0.040042 0.333181 0.310556 0.989229 0.024807 -0.144262
0.041038 0.310996 0.310063 0.985212 0.069102 -0.156789
0.042939 0.288726 0.310101 0.986522 0.098155 -0.130916
0.042607 0.307349 0.324223 0.997243 0.073737 -0.008340
0.041281 0.327998 0.322601 0.998642 0.051467 -0.008133
0.040511 0.346446 0.320684 0.999343 0.034000 0.012556
0.041994 0.385101 0.321390 0.628224 -0.629664 -0.457010
0.040223 0.378871 0.313789 0.999360 -0.035376 -0.005214
0.039370 0.378299 0.329527 0.876138 -0.480020 -0.044301
0.040176 0.363417 0.318421 0.999644 0.011344 0.024161
0.040054 0.199103 0.315582 0.878236 -0.268873 0.395486
0.039499 0.225603 0.333418 0.883919 -0.209027 0.418325
0.039923 0.343196 0.330349 0.985028 0.068515 0.158197
0.040493 0.326865 0.334758 0.976021 0.080262 0.202339
0.043438 0.281420 0.336395 0.965094 0.040547 0.258745
0.041770 0.305025 0.337381 0.968952 0.073096 0.236196
0.038150 0.277476 0.348590 0.860326 -0.002421 0.509738
0.037111 0.345629 0.339240 0.922434 0.089587 0.375619
0.036851 0.302666 0.349046 0.859549 0.063030 0.507152
0.036151 0.388470 0.367404 0.266670 -0.676154 0.686806
0.038091 0.377887 0.351461 0.403426 -0.868570 0.287809
0.039864 0.383101 0.359869 0.397839 -0.751228 0.526669
0.043023 0.380782 0.351508 0.570808 -0.783069 0.246945
0.041442 0.378294 0.341033 0.542297 -0.840187 0.000294
0.040732 0.379461 0.329958 0.614694 -0.754728 -0.229209
0.038965 0.358242 0.330091 0.977832 0.047013 0.204044
0.038108 0.376378 0.340584 0.542764 -0.838986 0.038854
0.036704 0.375258 0.340348 0.821774 -0.527694 0.215005
